# .PCD v0.7 - Point Cloud Data file format
VERSION 0.7
FIELDS x y z
SIZE 4 4 4
TYPE F F F
COUNT 1 1 1
WIDTH 1496
HEIGHT 1
VIEWPOINT 0 0 0 1 0 0 0
POINTS 1496
DATA ascii
-0.75836664 0.6474334 2.0093861
-0.76857436 0.64351273 1.9933833
-0.78487349 0.64474398 1.9934007
-0.80085999 0.64567763 1.9923996
-0.8226561 0.6511758 2.005475
-0.8292433 0.64465404 1.9811753
-0.85571885 0.65355098 2.0045352
-0.85710472 0.64330947 1.9686738
-0.87348258 0.64447695 1.9679807
-0.91266507 0.6621505 2.017879
-0.9250899 0.66014957 2.0071754
-0.93214875 0.65444577 1.9851006
-0.95045584 0.65669501 1.9872807
-0.98386556 0.66914558 2.0203841
-0.99324179 0.66511863 2.0032146
-0.99512625 0.65627319 1.971436
-0.99792022 0.64828277 1.9422936
-1.0484948 0.67111075 2.006022
-1.0512289 0.66309929 1.9766643
-1.0771974 0.66976327 1.9913234
-1.1038909 0.67668372 2.0065606
-1.1136266 0.67316127 1.9904836
-1.1312122 0.67441535 1.9885777
-1.1445314 0.67312622 1.9790337
-1.1688979 0.6782822 1.9884712
-1.1919914 0.68257326 1.9951907
-1.1983991 0.67732215 1.9737295
-1.249678 0.69724119 2.0259743
-1.2500398 0.6886068 1.9944373
-1.2556595 0.68304867 1.9719269
-1.2802157 0.6878016 1.9793433
-1.2928797 0.68612736 1.9680102
-1.3224157 0.69333947 1.9822317
-1.3264953 0.68719196 1.9578722
-1.3400441 0.68603694 1.94784
-1.3524222 0.68431658 1.9361392
-1.4011962 0.70083988 1.9762397
1.4222583 0.68601716 1.9753896
1.4279392 0.69666779 2.0135338
1.399689 0.69081897 2.0035958
1.3906515 0.69442672 2.0211914
1.3615606 0.68798745 2.0092113
1.3412151 0.68586522 2.0097682
1.3261884 0.6864444 2.0182047
1.3095509 0.6861937 2.0241039
1.2954686 0.68729246 2.0339391
1.2528518 0.67308903 1.9979399
1.2364415 0.67278135 2.0032876
1.1867521 0.65412271 1.953316
1.1869091 0.66280931 1.9854728
1.1939408 0.67561758 2.0301843
1.1769353 0.674986 2.0342295
1.1613548 0.67516571 2.0406504
1.1476134 0.67643428 2.0503163
1.1195092 0.66915369 2.0337396
1.0862451 0.65853709 2.0067143
1.0682385 0.65699685 2.0073757
1.0529383 0.65710032 2.0130041
1.0336857 0.65470368 2.0108147
1.0158137 0.65312195 2.011034
1.0115789 0.66039461 2.0386877
0.98985326 0.65629733 2.0309188
0.97406435 0.65606874 2.0350978
0.96070677 0.65749681 2.0443809
0.93847352 0.65279782 2.0343637
0.92076558 0.65114248 2.0337768
0.89304423 0.64222997 2.0101957
0.87714416 0.64165807 2.0127752
0.86200625 0.64163363 2.0170007
0.84685677 0.64159942 2.0211151
0.83024663 0.64043719 2.0215616
0.81794977 0.6426208 2.0325763
0.80239439 0.64227843 2.0354729
0.77104408 0.62903702 1.9970187
0.75983411 0.63202971 2.010361
0.74417776 0.63136959 2.0119312
0.71134907 0.61581647 1.9655092
0.71355993 0.63058102 2.0165291
0.70542914 0.63663977 2.0395346
0.68205863 0.62890941 2.0179455
0.67038387 0.63185948 2.0307856
0.64891857 0.62550628 2.0134041
0.63259465 0.62392908 2.0113969
0.61689293 0.62290508 2.0110989
0.59904611 0.61961246 2.0033245
0.58640456 0.6216737 2.012913
0.56690162 0.61638051 1.998417
0.55473036 0.61899 2.0096548
0.54144347 0.62046188 2.0171144
0.51726472 0.6091879 1.9827073
0.51090252 0.61885208 2.0168958
0.49204087 0.61349857 2.0017118
0.46856466 0.60189372 1.9658371
0.45461348 0.60218215 1.9689971
0.44001994 0.6016109 1.9692528
0.42745647 0.60386938 1.9787794
0.41808635 0.61094975 2.0041904
0.39617658 0.59955764 1.9684535
0.38403004 0.60264486 1.9805309
0.36789477 0.5994696 1.9717973
0.35643554 0.60396427 1.9884239
0.33492509 0.59109342 1.9473436
0.32282364 0.59443218 1.9599936
0.309526 0.59577096 1.9659418
0.29644394 0.59767163 1.9736987
0.28205717 0.597 1.9728301
0.26603436 0.59261364 1.9595114
0.25251779 0.59363347 1.9641348
0.23883526 0.59435982 1.9677162
0.2250074 0.5947926 1.970253
0.21216841 0.59807003 1.9822268
0.19756563 0.59648824 1.9779061
0.18356138 0.59660971 1.9792081
0.17027901 0.59929186 1.9890088
0.15500787 0.59482706 1.9748367
0.14312658 0.60377544 2.0054827
0.12637043 0.59186512 1.9662434
0.11364611 0.59822649 1.9881083
0.099527352 0.59800893 1.9878794
0.085335903 0.59721094 1.985639
0.071385577 0.59811836 1.9890472
0.057254758 0.59758794 1.9875706
0.043416783 0.60076398 1.9984525
0.029247776 0.60021555 1.9967843
0.015197962 0.60337394 2.0074768
0.0009918994 0.60194987 2.0027406
-0.013215756 0.60366106 2.0084486
-0.027360711 0.60221887 2.0035188
-0.041614566 0.60334009 2.0071161
-0.055814594 0.6033088 2.006783
-0.070012107 0.60326856 2.0063534
-0.083767667 0.6000759 1.9952942
-0.09830378 0.60258937 2.0032885
-0.1120498 0.60023642 1.9949139
-0.12694429 0.60387373 2.0065341
-0.14087269 0.60264564 2.0017943
-0.15599012 0.60626352 2.0132055
-0.1679875 0.59816498 1.985351
-0.18472818 0.60690284 2.0137429
-0.19785179 0.60335565 2.0009863
-0.21180861 0.6026544 1.9976794
-0.22861767 0.60964715 2.019995
-0.24302299 0.6097824 2.0193357
-0.2570698 0.60905325 2.0157242
-0.27171355 0.60974079 2.0167687
-0.285182 0.60785407 2.0091677
-0.30403203 0.61707032 2.038461
-0.31522191 0.61060774 2.0154939
-0.33286685 0.61666739 2.0341065
-0.3459799 0.6141758 2.02422
-0.35245994 0.60058159 1.9774358
-0.36889002 0.60433662 1.9881774
-0.38422796 0.60609001 1.9921976
-0.40431264 0.61493742 2.0196135
-0.4089404 0.60047662 1.9698434
-0.42949361 0.60958529 1.9979428
-0.44364443 0.60931188 1.9949552
-0.46097419 0.61328477 2.0058937
-0.47650322 0.61469352 2.0082898
-0.48552617 0.60787362 1.9835442
-0.49562392 0.60275137 1.9643553
-0.51673174 0.6109314 1.9887742
-0.53279799 0.61286926 1.9926025
-0.54945081 0.61536169 1.9981562
-0.56154811 0.61275536 1.9869534
-0.57696891 0.61381525 1.9876646
-0.59242994 0.61486506 1.9882597
-0.60653812 0.6144942 1.9841481
-0.60409325 0.59776115 1.926803
-0.63729882 0.61626351 1.9838594
-0.65674663 0.62093478 1.9958552
-0.68065816 0.62953097 2.0204206
-0.69097054 0.62545133 2.0038936
-0.70013577 0.62052512 1.9846057
-0.71456575 0.62037098 1.9806502
-0.72468984 0.61655974 1.9648745
-0.75177747 0.62704712 1.994908
-0.77144986 0.63106471 2.0040374
-0.78536099 0.63030672 1.9977874
-0.8010022 0.6309396 1.9959022
-0.81774414 0.63240075 1.9965659
-0.83637863 0.63524693 2.0015306
-0.84764647 0.63249648 1.9886459
-0.86448294 0.63392431 1.9889296
-0.88021016 0.63450414 1.9864398
-0.89673513 0.63563013 1.9855822
-0.90691233 0.6322934 1.9706122
-0.91814196 0.62978643 1.9582109
-0.95104742 0.64199102 1.9917625
-0.96861327 0.64362103 1.992071
-0.98454094 0.64412904 1.988784
-0.99832582 0.64324111 1.9810755
-1.0246952 0.65036672 1.9981104
-1.0416378 0.65138781 1.9961005
-1.0603994 0.6535002 1.9973541
-1.0810515 0.65670055 2.0018342
-1.0944636 0.65547466 1.9926196
-1.1138618 0.65781802 1.9942487
-1.1338139 0.66041976 1.9965433
-1.1438205 0.65723658 1.9811379
-1.1570562 0.6559689 1.9715087
-1.1849107 0.66291332 1.9866225
-1.1971786 0.66107047 1.9750711
-1.2173699 0.66359395 1.9765794
-1.2508394 0.67319977 1.9991542
-1.26519 0.67240429 1.9904393
-1.281558 0.67268741 1.9848651
-1.2931888 0.67050725 1.971904
-1.3110679 0.67158055 1.9685156
-1.3520265 0.68430936 1.9993423
-1.3387488 0.66961086 1.9493577
-1.3675458 0.67605436 1.9614103
-1.3744491 0.67165083 1.9416463
1.4388537 0.67768431 2.002075
1.4111098 0.67225045 1.9930502
1.3961909 0.67287093 2.0019827
1.3752409 0.67056537 2.0020437
1.3624229 0.67221731 2.0139234
1.3409983 0.66961139 2.0128574
1.3228152 0.66858023 2.016443
1.2880042 0.65901583 1.993908
1.2679873 0.65687668 1.9938153
1.2536336 0.65765429 2.0025492
1.2663691 0.67284483 2.055578
1.2187909 0.65596795 2.0098071
1.204828 0.65697736 2.0190253
1.187888 0.65636873 2.0231543
1.1709536 0.6557467 2.0271473
1.1497675 0.65269411 2.0234537
1.1338362 0.65258121 2.0288317
1.1183511 0.65272564 2.0349331
1.0850894 0.64235073 2.0078206
1.0639515 0.63895631 2.0024958
1.0597841 0.64580357 2.0294619
1.0351901 0.64022201 2.0170019
1.0172944 0.63867682 2.0172155
1.0028501 0.63928425 2.0241907
0.98668766 0.63879824 2.0275962
0.966407 0.63558853 2.0221806
0.95560193 0.63860762 2.0366499
0.91663742 0.62259907 1.9897999
0.92014265 0.63538408 2.0355804
0.89281058 0.62694752 2.0128098
0.87920195 0.62802309 2.0206788
0.86102843 0.62581849 2.0178258
0.84368134 0.6241467 2.016597
0.82422316 0.62082398 2.009881
0.81274492 0.62350029 2.0226517
0.78643155 0.6146822 1.9977318
0.7749486 0.61733955 2.010278
0.7596209 0.61697817 2.0128548
0.7449609 0.61715561 2.0171239
0.71502727 0.60442901 1.978744
0.71431226 0.616386 2.0217185
0.69245231 0.61021715 2.0047452
0.67453498 0.60733038 1.99851
0.66092807 0.60828263 2.0049186
0.64638978 0.60840142 2.0084891
0.63097882 0.60768527 2.0092039
0.61699051 0.6083377 2.0144022
0.60296291 0.60898232 2.0195057
0.58756363 0.60823905 2.0198963
0.56594896 0.60085911 1.9979666
0.55076033 0.60009301 1.9980882
0.52053028 0.58245468 1.9414452
0.49786106 0.57253343 1.9105387
0.50162464 0.59331036 1.982872
0.48256576 0.58752066 1.9657192
0.4697375 0.58919597 1.9736511
0.45639452 0.59031022 1.9796282
0.4367618 0.58309877 1.9573756
0.42651492 0.58835524 1.9772272
0.40959382 0.58444977 1.9659851
0.39191365 0.57914436 1.9498966
0.37683734 0.57743686 1.9459263
0.36358351 0.57849813 1.9512902
0.34926593 0.57788408 1.950892
0.33852264 0.58337849 1.9712241
0.32333484 0.58135802 1.965907
0.31149623 0.58544934 1.9813563
0.29465026 0.58007091 1.9644371
0.28088689 0.58052766 1.9673545
0.26389661 0.57401329 1.9463819
0.25340465 0.58169478 1.9738615
0.23955883 0.58212668 1.9764987
0.22558099 0.58227134 1.978088
0.21058016 0.57961953 1.9700316
0.19551465 0.5764001 1.9599545
0.18042548 0.57261288 1.9478549
0.16738303 0.57523191 1.9576522
0.15592489 0.5842607 1.9893848
0.13982973 0.57598191 1.9616656
0.12632829 0.57773966 1.9683232
0.11426109 0.58730495 2.001735
0.098353222 0.57704282 1.9669816
0.085267395 0.58268404 1.9867934
0.071294285 0.58329147 1.989247
0.057236239 0.5833317 1.9896857
0.0430516 0.58168763 1.9842685
0.029057274 0.58226877 1.9864351
0.01504911 0.58339977 1.9904264
0.00098451646 0.58340472 1.990481
-0.013111426 0.58479726 1.9952406
-0.026949257 0.57919925 1.9759004
-0.04166067 0.58978975 2.0121493
-0.055135638 0.58194041 1.9849402
-0.069293179 0.58301842 1.9883543
-0.083980374 0.58743775 2.0031836
-0.098505951 0.58961415 2.0102348
-0.11308128 0.59150201 2.0162249
-0.12666406 0.58835667 2.0048616
-0.14042729 0.58659858 1.9982001
-0.15630928 0.59320301 2.0201721
-0.17009944 0.59142709 2.013314
-0.18493167 0.59326875 2.0187979
-0.19778925 0.58896613 2.0031497
-0.2122431 0.58967471 2.0046153
-0.22833341 0.59455556 2.0202956
-0.24249342 0.5941304 2.0177333
-0.25687006 0.59425378 2.0169804
-0.26819798 0.58768374 1.9932805
-0.27746767 0.57748914 1.9571604
-0.29748073 0.58956057 1.9970235
-0.30982876 0.58603275 1.9835515
-0.32815418 0.59362561 2.0079336
-0.33945823 0.58841318 1.9885947
-0.35902837 0.59737253 2.0174417
-0.37380984 0.59798044 2.0177724
-0.38410643 0.59163517 1.9944087
-0.39745975 0.59028399 1.9879636
-0.41771111 0.59891665 2.0153093
-0.42935959 0.59504962 2.0001872
-0.44309214 0.59422767 1.9953243
-0.45421883 0.59007198 1.9791276
-0.47107956 0.59339142 1.9881305
-0.49126163 0.60057569 2.0100708
-0.50268781 0.59695077 1.9954711
-0.51609147 0.59581065 1.9891883
-0.52697229 0.5918985 1.9735285
-0.54776698 0.59903443 1.9949065
-0.56474358 0.60173547 2.0012856
-0.57572848 0.59807712 1.9862818
-0.5966031 0.60461998 2.0053334
-0.60607302 0.59956867 1.9855541
-0.62613171 0.60498363 2.0006282
-0.64322788 0.6073547 2.0054452
-0.66012752 0.6094389 2.0092089
-0.66524094 0.60078812 1.9772696
-0.68330848 0.60395557 1.9844826
-0.69865799 0.60463876 1.9833726
-0.72471052 0.61436731 2.0120292
-0.73470187 0.61036325 1.995258
-0.74247789 0.60471207 1.9730413
-0.76986146 0.6149404 2.0029354
-0.78897941 0.61830473 2.0101397
-0.80042177 0.61564052 1.9975122
-0.81679314 0.6167956 1.9973034
-0.83430964 0.61875856 1.9996322
-0.8492834 0.61879992 1.9956108
-0.86424607 0.61883187 1.9914798
-0.87919694 0.61885452 1.9872385
-0.89885122 0.62213171 1.9934272
-0.91624594 0.62376308 1.9941865
-0.94140345 0.63054121 2.0113857
-0.93886554 0.61884862 1.96917
-0.96836674 0.62830997 1.9947282
-0.9728471 0.62149549 1.9681165
-1.0075345 0.63389248 2.0026941
-1.0030779 0.62165952 1.9587768
-1.0449269 0.63806224 2.0056822
-1.0597029 0.63769728 1.9992629
-1.0694469 0.63435811 1.9833966
-1.0905313 0.63774484 1.9886416
-1.0986904 0.63358378 1.970094
-1.124593 0.63962865 1.9834316
-1.1497871 0.64511251 1.9948329
-1.1703607 0.64789224 1.9976522
-1.1822134 0.64583457 1.9853531
-1.1969295 0.64537418 1.9779443
-1.2351921 0.65745896 2.0090923
-1.252635 0.65829599 2.0054023
-1.2536554 0.65058964 1.9754698
-1.2776874 0.65486807 1.982164
-1.2882254 0.65221035 1.9676039
-1.3166735 0.65857494 1.9803579
-1.3233666 0.6540361 1.9599715
-1.3509884 0.65982568 1.970687
-1.3738972 0.66320568 1.9739749
-1.3792038 0.65810859 1.9517733
1.4436771 0.66356367 2.012223
1.4258602 0.6629014 2.017427
1.3981566 0.65757388 2.0081787
1.3804402 0.6568734 2.0130236
1.3621883 0.65589845 2.0169213
1.3396951 0.65283334 2.0142181
1.3204689 0.65130478 2.0161624
1.2778611 0.63806355 1.9813398
1.2661871 0.64013058 1.9942275
1.2630471 0.64661878 2.0209987
1.243495 0.64476347 2.0214565
1.2245004 0.64315271 2.0225706
1.2109594 0.64440185 2.03266
1.2017082 0.6479972 2.0501688
1.1601522 0.63403487 2.0115304
1.1542454 0.63943964 2.0346437
1.1246989 0.63171655 2.0155661
1.1139442 0.63447958 2.0300732
1.0880148 0.62855494 2.0164623
1.0681813 0.62603122 2.0136895
1.0528791 0.62612826 2.0193076
1.0362433 0.62542325 2.0222325
1.0196236 0.62470663 2.0250254
1.0042956 0.62477165 2.0302835
0.987692 0.62403274 2.0328219
0.9678055 0.62116337 2.0282569
0.95413572 0.62225586 2.0366311
0.94560468 0.62679029 2.0563166
0.92029345 0.62016785 2.0390286
0.90730369 0.62176496 2.0488503
0.88544714 0.6172362 2.0382316
0.85628259 0.60736501 2.0096555
0.8390131 0.60572946 2.008378
0.83051634 0.61048317 2.028389
0.81536543 0.61043084 2.0322628
0.79810393 0.60876673 2.0306389
0.77300096 0.60094261 2.0081716
0.75838375 0.60112357 2.0125332
0.74540293 0.60263455 2.0213146
0.71480238 0.58967191 1.9810332
0.71823865 0.60483265 2.0359037
0.69224012 0.59532362 2.0070624
0.67096436 0.58955151 1.9907533
0.66550928 0.59773284 2.0218625
0.64443403 0.59193766 2.0052731
0.62248325 0.58505058 1.9848136
0.61512136 0.59187341 2.011152
0.59567273 0.58711553 1.9977738
0.57884598 0.58476883 1.9925548
0.56472677 0.58510733 1.996473
0.55058348 0.58543795 2.0002937
0.49019071 0.53528255 1.8299929
0.48757172 0.54718339 1.8733934
0.49818122 0.57503217 1.9719443
0.483767 0.57478398 1.9734359
0.46427572 0.56830609 1.9532739
0.45388335 0.5729093 1.97142
0.43557155 0.56749076 1.9547389
0.41771895 0.56233001 1.9388444
0.40692338 0.56664121 1.9557954
0.38970798 0.56200147 1.941539
0.37652257 0.56304526 1.9469931
0.36100924 0.5605545 1.9400556
0.34561276 0.55805373 1.9330006
0.33598471 0.56504619 1.959036
0.32399693 0.56850439 1.9726839
0.30427989 0.55809927 1.9377652
0.29044512 0.5580076 1.938846
0.28159839 0.5679673 1.9750865
0.26700547 0.56677413 1.9721943
0.25246745 0.56557184 1.9691981
0.23683757 0.56163949 1.9565445
0.22291055 0.56150717 1.9571592
0.21000049 0.56408894 1.9672465
0.19544597 0.56230658 1.9619308
0.18317503 0.5673241 1.9804655
0.16691788 0.5598042 1.9548241
0.15289193 0.55908453 1.9530391
0.13923831 0.55971879 1.9559556
0.12536836 0.55952716 1.9558994
0.11183219 0.56096256 1.9615111
0.09827131 0.56266254 1.9679934
0.083971128 0.55999207 1.9590045
0.070826225 0.56549239 1.9787607
0.055983193 0.55680597 1.948422
0.042581961 0.56147182 1.9651092
0.029075298 0.56858397 1.9903647
0.014885443 0.56314331 1.9712738
0.00098654197 0.5705114 1.9973046
-0.013132093 0.57159841 2.0011115
-0.027082993 0.56804091 1.9884676
-0.040956207 0.56583852 1.9805394
-0.055302195 0.56962663 1.9936763
-0.069933861 0.57422364 2.0095971
-0.08351323 0.5700869 1.9946517
-0.098146945 0.57330269 2.0055652
-0.11202994 0.57187539 2.0000434
-0.12638171 0.57289267 2.0030713
-0.14038047 0.57226598 2.0002401
-0.15471384 0.57299322 2.0021112
-0.16851854 0.5718047 1.997171
-0.1832189 0.57360411 2.0026796
-0.19800496 0.57539421 2.0080833
-0.21096817 0.57200211 1.9951986
-0.22558193 0.57323015 1.9984905
-0.23911451 0.57172811 1.992124
-0.25244895 0.56994611 1.9847139
-0.26912588 0.57549995 2.0029726
-0.28513438 0.57913893 2.0144269
-0.29878736 0.57787448 2.0086215
-0.31634834 0.5839389 2.0284052
-0.32573912 0.57505101 1.9957935
-0.3422339 0.57892299 2.0077531
-0.35239345 0.57219762 1.982617
-0.36986619 0.57740784 1.9990932
-0.37946826 0.57040012 1.9728796
-0.39695314 0.57531917 1.9881769
-0.41312265 0.57805759 1.9957854
-0.42781737 0.57861841 1.9957365
-0.44398117 0.58106554 2.0021629
-0.45769575 0.58025444 1.9971989
-0.4742249 0.58295244 2.0043283
-0.48815864 0.58239496 2.0000985
-0.49506232 0.57372242 1.9677504
-0.51376492 0.57882565 1.9829631
-0.5253188 0.57581657 1.9700885
-0.5445565 0.58116663 1.9859544
-0.56145155 0.58380574 1.9923767
-0.55773032 0.56541264 1.9264674
-0.592058 0.58554864 1.9928023
-0.61061758 0.58950156 2.0034447
-0.62736148 0.59155816 2.0074885
-0.64448673 0.59387255 2.0123162
-0.6611172 0.59563822 2.0151734
-0.67416692 0.59417105 2.0069325
-0.6846481 0.5905509 1.9913157
-0.69812089 0.58960843 1.9847475
-0.72254986 0.59776866 2.0089409
-0.73051429 0.59225363 1.9867307
-0.74493802 0.59208894 1.9825656
-0.76688814 0.59779757 1.9981085
-0.78735107 0.60215336 2.0089533
-0.80231845 0.60222232 2.0052805
-0.81981063 0.60414952 2.007751
-0.81491852 0.58980691 1.955743
-0.85016066 0.6045056 2.00071
-0.85638058 0.59841686 1.9762101
-0.88978022 0.61120492 2.0144081
-0.90724885 0.61280549 2.0152695
-0.91718823 0.6093514 1.9993142
-0.93668777 0.61225778 2.0043123
-0.95054197 0.61144042 1.9969305
-0.9681052 0.612997 1.9972755
-0.98614913 0.61480552 1.99834
-1.0038306 0.61633646 1.9983882
-1.0228752 0.6186462 2.0008686
-1.0406821 0.62015039 2.0006108
-1.0567465 0.62058759 1.9967862
-1.0691763 0.61890841 1.986029
-1.0902623 0.62221658 1.9913048
-1.0923494 0.61474079 1.9617566
-1.0945485 0.60753214 1.9331183
-1.1418639 0.62522191 1.9841598
-1.1633137 0.62846583 1.9887291
-1.1829273 0.63064528 1.989772
-1.1926903 0.62758493 1.9740812
-1.2158527 0.63156325 1.9806135
-1.2544129 0.64333755 2.0115502
-1.2554474 0.6358127 1.9815582
-1.2670351 0.63375241 1.9687432
-1.2963722 0.64051205 1.9834127
-1.3153582 0.64205599 1.9816409
-1.3290159 0.6409933 1.9716756
-1.347483 0.64224792 1.9688118
-1.3758473 0.64813572 1.9801062
-1.3778473 0.64161122 1.9531125
1.4496039 0.6498282 2.0238638
1.4139575 0.64112836 2.0037305
1.3968047 0.6407094 2.0094931
1.3774661 0.63926607 2.0119171
1.3554738 0.63654232 2.0101531
1.3404981 0.63708764 2.0186865
1.2886081 0.61988848 1.9703078
1.3031013 0.63459283 2.0240176
1.2705445 0.62646562 2.0043392
1.2490294 0.6236459 2.0015779
1.2366802 0.62538928 2.0134814
1.2237302 0.62686998 2.0244823
1.205282 0.62553608 2.0262425
1.1849313 0.6231662 2.0245025
1.1483603 0.61208683 1.9940411
1.1369191 0.61428189 2.0069928
1.123017 0.61518949 2.0156527
1.1104381 0.61685807 2.0267653
1.0968508 0.61800581 2.0360961
1.066554 0.60963601 2.0136864
1.0499418 0.60895705 2.0167129
1.0307198 0.60672158 2.0144379
1.0202144 0.60962725 2.0292864
1.0001994 0.60685223 2.025001
0.97736663 0.60225433 2.0144444
0.9547379 0.59763843 2.0036709
0.93190813 0.5927459 1.9918071
0.92692345 0.5992294 2.0183976
0.90426207 0.59431106 2.0062215
0.90239406 0.60312372 2.0407014
0.87793905 0.59688371 2.0238042
0.85602576 0.59218329 2.0120072
0.84097511 0.59214729 2.0160654
0.82954413 0.59470505 2.02896
0.8119126 0.59282994 2.0265417
0.79330933 0.59016114 2.0212803
0.78170556 0.59269708 2.0339
0.7618621 0.58896255 2.0247533
0.73854536 0.58234018 2.0054591
0.72853959 0.58615744 2.0222981
0.70336485 0.57767516 1.9962744
0.69108135 0.57964504 2.0065331
0.67104864 0.57505977 1.9938349
0.65691799 0.57544094 1.9983903
0.64334506 0.57633913 2.0046864
0.62914616 0.57670534 2.0090494
0.59896672 0.56209195 1.9606797
0.59410697 0.57110649 1.9952725
0.57064342 0.56224126 1.9668447
0.55724561 0.56309342 1.9725643
0.53034252 0.54998487 1.9288671
0.4956727 0.52789748 1.8531954
0.4905071 0.536879 1.8873699
0.49261832 0.55456436 1.9524399
0.48314148 0.55985993 1.9735734
0.46897185 0.55987334 1.9758929
0.44878843 0.55248415 1.9517844
0.43686897 0.55512035 1.9632834
0.42098638 0.55272847 1.9567922
0.39996007 0.54318631 1.9246763
0.38918707 0.54738533 1.9415525
0.37311697 0.54416919 1.9318544
0.36069971 0.54623806 1.9409969
0.34817362 0.54830062 1.9500622
0.33311585 0.54638201 1.94479
0.31753018 0.54339373 1.9355991
0.30549961 0.54649407 1.9482024
0.29161006 0.54640561 1.9492894
0.28082314 0.5524115 1.9722378
0.26408905 0.54673493 1.9530861
0.25638601 0.56016165 2.0026648
0.23629113 0.54650116 1.9545915
0.22239608 0.546372 1.9552004
0.20911293 0.54782879 1.9614661
0.19565856 0.54901218 1.9666846
0.17941397 0.54194838 1.9420533
0.16653104 0.54470974 1.9528376
0.15208969 0.5424121 1.9452778
0.13952605 0.54701978 1.9626169
0.12556644 0.54656714 1.9615983
0.11157367 0.54584014 1.9595212
0.097806804 0.5461688 1.9611986
0.083653867 0.5440948 1.9541146
0.070288278 0.54733378 1.9661988
0.056318905 0.54630738 1.9627774
0.042421557 0.5455386 1.9602236
0.028702244 0.54742283 1.9672127
0.014764643 0.54477453 1.9577223
0.00098478142 0.55542463 1.9963337
-0.01308364 0.55542099 1.9962922
-0.027073406 0.55381221 1.9903718
-0.041099556 0.55379176 1.9901391
-0.055070847 0.5532307 1.9878834
-0.069045916 0.55292743 1.9864961
-0.084283188 0.56112981 2.0158336
-0.097692721 0.55655247 1.9988416
-0.11241836 0.55968177 2.0096762
-0.12651837 0.55934429 2.0078983
-0.14093362 0.56032819 2.0108328
-0.15326151 0.55359238 1.9857923
-0.16926301 0.56014282 2.0087144
-0.18402593 0.56189817 2.014231
-0.19737431 0.55939245 2.0042903
-0.21179865 0.56006765 2.0057704
-0.22561063 0.55914044 2.0014012
-0.23823349 0.5555498 1.9873663
-0.25356525 0.55832446 1.9962131
-0.26597857 0.55471927 1.9820087
-0.28034937 0.5553534 1.9830083
-0.29995078 0.5657934 2.0191998
-0.3134445 0.56428587 2.0123372
-0.32501009 0.55959004 1.9939653
-0.34227765 0.56469381 2.0107117
-0.35594898 0.56369299 2.0054748
-0.37043437 0.56400883 2.0048904
-0.38366607 0.56246334 1.997573
-0.40205556 0.5683192 2.0166602
-0.41046092 0.56014508 1.9855207
-0.42606676 0.5620153 1.9902126
-0.44486496 0.56783932 2.0089161
-0.45903426 0.56757516 2.0058243
-0.46811932 0.56123143 1.9810365
-0.4818702 0.56069076 1.9768479
-0.50118697 0.56647187 1.9950291
-0.51646584 0.56749433 1.9962219
-0.53277367 0.56956142 2.0010316
-0.54563475 0.56793207 1.99268
-0.56281829 0.57076973 2.0000448
-0.5748142 0.56833631 1.9887215
-0.59185904 0.57089162 1.9949161
-0.60511535 0.56975806 1.9880401
-0.62858355 0.57806855 2.014261
-0.64369428 0.57848966 2.0126612
-0.6588164 0.57890213 2.0109508
-0.667548 0.57380348 1.9899002
-0.68131065 0.57315463 1.9843575
-0.69058448 0.56883532 1.9659621
-0.71389508 0.57601833 1.9875392
-0.7349028 0.58109277 2.0016339
-0.74469554 0.57727438 1.9847759
-0.75772291 0.57606208 1.9769032
-0.78326267 0.5842284 2.0013444
-0.78854841 0.57726479 1.9734721
-0.81738693 0.58748293 2.0046968
-0.83602256 0.59013361 2.0097344
-0.84952742 0.58913308 2.0021515
-0.86640012 0.59046227 2.0024652
-0.88525987 0.59307754 2.0070665
-0.90226406 0.59438324 2.007093
-0.91691869 0.59412354 2.0017052
-0.92424029 0.58919758 1.9804344
-0.94367421 0.59202701 1.9853705
-0.95946395 0.59251738 1.9822958
-0.97101748 0.59041691 1.9704187
-1.0022595 0.60017002 1.9982671
-1.0199754 0.60165292 1.9981936
-1.0293328 0.59823436 1.9816513
-1.0429995 0.59738314 1.9736354
-1.077986 0.60859269 2.005605
-1.0978111 0.61104733 2.0082989
-1.1135303 0.61118001 2.0031972
-1.1339647 0.61386162 2.0064065
-1.1497158 0.61396974 2.0010316
-1.1659358 0.61432195 1.9963721
-1.1826416 0.61491758 1.9924184
-1.2122654 0.62212706 2.009903
-1.2160689 0.61607087 1.9841082
-1.2434636 0.62196815 1.9970289
-1.2510512 0.61793453 1.9777175
-1.2709099 0.61998671 1.9779743
-1.2876821 0.62050158 1.9731807
-1.3081728 0.62277424 1.9739106
-1.3217551 0.62174302 1.9639935
-1.3575267 0.63105094 1.986823
-1.3755822 0.63200265 1.9829481
-1.3792379 0.62639266 1.9582968
1.4476583 0.63251847 2.0243561
1.4125714 0.62427652 2.0049388
1.3932291 0.62288207 2.0074906
1.3771868 0.62294757 2.0146875
1.3551904 0.62028933 2.012897
1.3300941 0.61613131 2.0060453
1.3214996 0.61960894 2.0241559
1.3054205 0.61961991 2.0308096
1.2826165 0.61639923 2.0266743
1.2395606 0.60324138 1.9893638
1.2182546 0.60046679 1.9863132
1.2234374 0.61084569 2.0271065
1.2000706 0.6070556 2.0205064
1.1583983 0.59378135 1.9818466
1.1648544 0.60515189 2.0259807
1.1484686 0.60480464 2.0306106
1.1208479 0.59844911 2.0147686
1.1036772 0.59757286 2.0173628
1.0847063 0.59568286 2.0164013
1.0811048 0.60230082 2.0444191
1.050092 0.59361744 2.0200067
1.012042 0.58063787 1.9805896
1.013453 0.59024787 2.0187151
0.99097735 0.5860275 2.0091434
0.985466 0.59186417 2.0342472
0.97262967 0.59341675 2.0444944
0.94789916 0.58764559 2.0292029
0.93746561 0.59069395 2.0444932
0.90911162 0.58236426 2.0199831
0.8963002 0.58387733 2.0297399
0.88149029 0.58411831 2.0349734
0.8512463 0.57396108 2.0035534
0.82777584 0.56809014 1.9870139
0.81402886 0.56880027 1.9935559
0.80701637 0.57432944 2.0170841
0.78919894 0.57223248 2.0135694
0.77663857 0.57393998 2.0234628
0.75147969 0.56622171 1.9997545
0.73398989 0.56408888 1.9957834
0.71854728 0.56347466 1.9971322
0.67985797 0.54422581 1.9317262
0.68553883 0.56043202 1.9930764
0.67020559 0.55978978 1.994063
0.66178268 0.56501883 2.0160768
0.63316286 0.55285019 1.9754245
0.62491971 0.55832171 1.9981822
0.61050999 0.55841279 2.001492
0.59499282 0.5574708 2.0009916
0.5709694 0.54831302 1.9706491
0.54610026 0.5378536 1.9354212
0.50092578 0.50632066 1.8234844
0.48333514 0.50171942 1.8091203
0.48934299 0.52203828 1.8853842
0.49665144 0.54494298 1.9711887
0.48296386 0.54547846 1.9754789
0.46769348 0.54420459 1.9730917
0.45097926 0.54111892 1.9639961
0.43025568 0.53286904 1.9358957
0.41579092 0.53207964 1.9350115
0.40116596 0.53102404 1.9330763
0.38941288 0.53383005 1.9452487
0.37514958 0.53327513 1.9450173
0.36178428 0.53400308 1.9494351
0.34248599 0.52568257 1.9204682
0.33298677 0.53233624 1.9465727
0.31942043 0.53278279 1.9497551
0.30449167 0.53089446 1.9442542
0.2909309 0.53132516 1.9472433
0.27774858 0.53252459 1.9530096
0.26527011 0.53526986 1.9644337
0.24899848 0.53024149 1.9470338
0.23643005 0.53297186 1.9582782
0.22306786 0.53414142 1.9636852
0.20548159 0.52468032 1.9296225
0.19122544 0.52298188 1.9242512
0.1763503 0.51920122 1.9110838
0.16516556 0.52655935 1.9391885
0.15255253 0.53028214 1.9537505
0.13886195 0.53062654 1.9557084
0.12521274 0.53122246 1.9585373
0.11169412 0.53258866 1.964166
0.096482322 0.52512592 1.9369088
0.083416902 0.52881104 1.9510293
0.069406785 0.52677989 1.9438308
0.055885658 0.52837366 1.9500501
0.042674467 0.53489059 1.9745226
0.028733227 0.53413296 1.9718697
0.014722881 0.52947378 1.9546356
0.00098347676 0.54063904 1.9962155
-0.013204309 0.54634547 2.0174201
-0.026972303 0.53776878 1.9854151
-0.040985588 0.53826791 1.9871143
-0.055342037 0.5418731 2.0003023
-0.068754353 0.53664654 1.9805727
-0.083773293 0.54360813 2.0061085
-0.097703844 0.54251719 2.0016301
-0.11200374 0.54349351 2.0047722
-0.12490772 0.53823608 1.984681
-0.14007996 0.54282749 2.0011232
-0.15467788 0.54455662 2.0068593
-0.16912183 0.54549938 2.0096049
-0.18247955 0.54306364 1.9997448
-0.19608334 0.54165733 1.9936439
-0.21001329 0.54128009 1.9912966
-0.22585064 0.54555762 2.0061328
-0.23871538 0.54257339 1.9939913
-0.2556445 0.54864478 2.0153131
-0.27186483 0.55263388 2.0288384
-0.28037962 0.54134518 1.9857987
-0.29421672 0.5409202 1.9828799
-0.31141707 0.54643548 2.0018251
-0.32751063 0.54961222 2.0120463
-0.33797735 0.54347551 1.9878508
-0.35565427 0.54896021 2.0064254
-0.36786568 0.54591101 1.9934934
-0.38262445 0.54672819 1.994727
-0.3923628 0.54057002 1.9702638
-0.41263783 0.54885262 1.9987684
-0.42932126 0.55196404 2.0081861
-0.43227997 0.53779942 1.9542382
-0.4545972 0.54785156 1.9889275
-0.47169387 0.55119288 1.9989413
-0.48101315 0.54551679 1.9759406
-0.4972727 0.54781151 1.9819788
-0.50932175 0.54546899 1.9710388
-0.52346295 0.54543346 1.9684392
-0.54417539 0.55206621 1.9899918
-0.56132269 0.55483431 1.997389
-0.57301337 0.5522052 1.9851333
-0.58837938 0.55316001 1.9857963
-0.61299694 0.56255955 2.0168839
-0.63151187 0.56605113 2.0264864
-0.64259964 0.56287813 2.011971
-0.66187733 0.5668605 2.0231478
-0.67372125 0.56444144 2.0112195
-0.67764825 0.55563402 1.9763429
-0.67126948 0.53892028 1.9132019
-0.71494728 0.5622558 1.9932669
-0.73630995 0.56745863 2.0083015
-0.75084507 0.56729871 2.0041018
-0.7612409 0.56407762 1.9889497
-0.78929973 0.57381928 2.0197377
-0.79682589 0.56854934 1.9971765
-0.81712282 0.57241738 2.0068944
-0.82801431 0.56967628 1.9931759
-0.85375541 0.57706851 2.0150735
-0.86612564 0.575324 2.0047023
-0.87529659 0.57154948 1.9871653
-0.89371675 0.5738399 1.9908096
-0.92063463 0.58142161 2.0127976
-0.93532038 0.58115822 2.0072813
-0.94503075 0.57786089 1.9911536
-0.95330924 0.5738048 1.9723711
-0.97496253 0.5778001 1.9814003
-0.98947179 0.57750458 1.97549
-1.0161831 0.58423322 1.9936594
-1.0303581 0.58366227 1.9865929
-1.0575106 0.59035271 2.004298
-1.0758667 0.59201133 2.0046322
-1.0758388 0.58364975 1.9707555
-1.0940759 0.58529186 1.9709021
-1.1246747 0.59341127 1.9928578
-1.1455806 0.59626609 1.996811
-1.1646621 0.59810764 1.9972178
-1.1764451 0.59620196 1.984934
-1.1985511 0.59950918 1.9900447
-1.2067127 0.59584647 1.9717616
-1.2416375 0.60532385 1.9971603
-1.2512603 0.60238332 1.9811237
-1.2695657 0.60364377 1.9789466
-1.2894831 0.60563058 1.9790536
-1.3041489 0.60513264 1.9708812
-1.3397319 0.61423671 1.9940516
-1.34474 0.60927349 1.9710754
-1.3560783 0.60726053 1.9577156
-1.3850451 0.61309719 1.9697376
1.4170537 0.60305637 1.9843144
1.3839269 0.59572279 1.9670129
1.3940276 0.60704261 2.0117514
1.364907 0.60134846 1.9996578
1.3570395 0.604994 2.0187552
1.3063322 0.5893985 1.9729426
1.2964144 0.59205091 1.988463
1.2879077 0.59542114 2.0063982
1.2513713 0.58575499 1.979917
1.2422957 0.58886111 1.9967908
1.2123865 0.5820449 1.9796386
1.2121691 0.58949137 2.0112975
1.2027084 0.59257942 2.0279987
1.1955062 0.59687722 2.0488634
1.1458125 0.57979017 1.9955581
1.1291872 0.57919723 1.9992036
1.1013337 0.5727486 1.9823306
1.105674 0.5830965 2.0239987
1.0939729 0.5851593 2.0367246
1.0799007 0.58599514 2.0450916
1.0693216 0.58877891 2.0602579
1.0336219 0.57760781 2.0260689
1.0114193 0.57375509 2.017529
1.0000366 0.57601625 2.0305555
0.98097241 0.57385439 2.0277908
0.96117473 0.57118809 2.0231073
0.93823886 0.5665409 2.0112119
0.92594945 0.56827557 2.0220401
0.90724158 0.56606323 2.0186327
0.88785517 0.56334543 2.0132892
0.8800624 0.56801689 2.0344906
0.85133743 0.5591051 2.0065601
0.83784348 0.56005663 2.0141594
0.81920058 0.55753839 2.0090942
0.80960256 0.56119668 2.0263863
0.79103589 0.5586589 2.0210645
0.76776582 0.55263811 2.0029085
0.75831681 0.55652469 2.0208428
0.74301851 0.55618805 2.0232708
0.72675097 0.55509746 2.0228484
0.70893484 0.55275387 2.0177264
0.68716741 0.54716456 2.0005395
0.66965795 0.54479665 1.995097
0.65286094 0.54291612 1.9913527
0.64142907 0.54551309 2.0040872
0.62239963 0.54161924 1.9927107
0.60020125 0.53471708 1.970047
0.59368151 0.54178685 1.9991893
0.57048577 0.53361148 1.971565
0.54822963 0.5259189 1.9455849
0.49561408 0.48793322 1.8063542
0.48756737 0.49295998 1.827486
0.50673318 0.52654177 1.9554828
0.49693003 0.53107899 1.9748703
0.48095572 0.52909362 1.9697553
0.46375075 0.52559358 1.9588624
0.45209232 0.52835745 1.9714255
0.44049054 0.53136748 1.9848682
0.42046013 0.52407211 1.9594311
0.39963841 0.51525456 1.9281282
0.38756195 0.51748568 1.9384086
0.37281877 0.51618952 1.9353073
0.35883898 0.51589131 1.9359049
0.3465538 0.51810288 1.9459348
0.33188254 0.51678264 1.9425308
0.31386495 0.50991154 1.9180051
0.2994715 0.5085724 1.9143654
0.2895382 0.51504004 1.9402969
0.27736741 0.5179736 1.9527681
0.26247013 0.51585644 1.945984
0.24597839 0.51019764 1.9256505
0.23426679 0.51437145 1.9426564
0.22027349 0.5137431 1.9413251
0.20417838 0.50780404 1.9196886
0.1914303 0.50993669 1.9287397
0.17786139 0.51004171 1.9300005
0.16477259 0.51165521 1.9369534
0.15196881 0.51452506 1.9486431
0.13846676 0.51536596 1.9525292
0.12442863 0.51417708 1.9485996
0.11143207 0.51753086 1.9619601
0.097635157 0.5175907 1.962674
0.084038533 0.51890689 1.9681264
0.069720656 0.51541036 1.9551165
0.0561652 0.51721674 1.9623151
0.042574875 0.5197742 1.972324
0.028680017 0.51928872 1.9706324
0.014868614 0.52081889 1.9765859
0.00097412587 0.52158225 1.9795424
-0.012948347 0.52183175 1.9804689
-0.026935827 0.52308512 1.98517
-0.040791817 0.52180099 1.9801019
-0.054949753 0.52404994 1.98848
-0.068860695 0.52350879 1.9861234
-0.083101578 0.52523559 1.9923724
-0.097152568 0.52543694 1.9927238
-0.11212198 0.52992833 2.0094013
-0.12516057 0.52530998 1.9912058
-0.13935724 0.52599287 1.9931995
-0.15491454 0.5312165 2.0124598
-0.1679325 0.52758682 1.9978546
-0.18249755 0.5290029 2.0024421
-0.19722883 0.53066313 2.007889
-0.21083823 0.52928442 2.0016825
-0.22211754 0.52259672 1.9751921
-0.2372563 0.52524316 1.9841977
-0.25289401 0.52863735 1.9959706
-0.26717904 0.52899474 1.9961141
-0.28174704 0.5298484 1.9980747
-0.29522964 0.52867687 1.9922727
-0.31321698 0.53531116 2.0160313
-0.32815981 0.53639036 2.0186203
-0.34202912 0.53569794 2.014421
-0.35568914 0.53474641 2.009176
-0.36546293 0.52825111 1.9828963
-0.38392606 0.53433156 2.0041215
-0.39239761 0.52656871 1.9729624
-0.41325936 0.53539437 2.0043697
-0.41792679 0.52335107 1.9569917
-0.4387413 0.53165293 1.9862345
-0.45934418 0.53918636 2.0124526
-0.47151837 0.53666896 2.0007792
-0.48105636 0.53138787 1.9786844
-0.49685091 0.5331226 1.9828614
-0.51513052 0.53735298 1.9962949
-0.5220288 0.52980345 1.965572
-0.54650533 0.54002172 2.0011992
-0.56007713 0.5392164 1.9955436
-0.57599556 0.540654 1.9981767
-0.58788836 0.53833514 1.986751
-0.59993124 0.53626096 1.976185
-0.61900216 0.54041934 1.9886807
-0.6359418 0.54257005 1.9936227
-0.64730817 0.53997582 1.9809233
-0.66097224 0.53936946 1.9755176
-0.68269646 0.54522622 1.993862
-0.69930696 0.54683971 1.9964491
-0.7127462 0.5459581 1.989776
-0.7277838 0.54631162 1.9875664
-0.74653786 0.5493862 1.9952348
-0.76269025 0.55046469 1.9954933
-0.77468777 0.54856038 1.984784
-0.7954824 0.55284035 1.9965302
-0.81032038 0.55290025 1.9928099
-0.83400196 0.55888414 2.0104852
-0.84784639 0.5581817 2.0038054
-0.86049801 0.5567317 1.9943584
-0.87461382 0.55626214 1.9883863
-0.89066184 0.55701661 1.9867424
-0.91073591 0.56022292 1.9938003
-0.92933214 0.56243128 1.9971563
-0.94224918 0.56118709 1.9880697
-0.95592636 0.56042743 1.9806497
-0.97337395 0.56186748 1.9809788
-0.99906707 0.56795144 1.9976624
-1.0167425 0.56936359 1.9976412
-1.031369 0.56905216 1.9914347
-1.0437163 0.56751043 1.9808257
-1.060068 0.56815881 1.9778475
-1.093505 0.5778172 2.0063009
-1.1096388 0.5781908 2.0020916
-1.1186706 0.57490438 1.9850575
-1.1457376 0.58085012 2.0000403
-1.1483232 0.57439154 1.9719057
-1.1795574 0.58224434 1.9931904
-1.1962374 0.58280236 1.989143
-1.2189593 0.5862518 1.9949173
-1.2423345 0.58992398 2.0012991
-1.248361 0.58536935 1.9794842
-1.2713233 0.58877057 1.9847127
-1.286528 0.58853984 1.9774877
-1.3038248 0.58926028 1.9733969
-1.3275845 0.59284961 1.97886
-1.3357223 0.58946043 1.9607656
-1.349714 0.58870345 1.9514629
-1.3636411 0.58793598 1.9420637
1.4442509 0.59823179 2.0257516
1.403608 0.58807427 1.9982108
1.3898505 0.5890758 2.0086877
1.3618519 0.58399391 1.9981319
1.3211377 0.57327348 1.9678687
1.3134526 0.57679981 1.9867274
1.307678 0.58126104 2.0088418
1.2719202 0.57234055 1.9842221
1.2510247 0.56996858 1.9822731
1.2373637 0.57087439 1.9917146
1.2427934 0.58072382 2.0326355
1.1978793 0.5669995 1.9902951
1.1974524 0.57424831 2.0219929
1.1825334 0.5746479 2.0293877
1.1421075 0.56249607 1.9919158
1.1307455 0.56452173 2.0048521
1.1173878 0.56559336 2.0143228
1.109969 0.56974351 2.0348103
1.0776722 0.56106019 2.0089898
1.0669687 0.56353009 2.0232694
1.0494567 0.56242377 2.0245421
1.0127034 0.55081892 1.9875358
0.99942994 0.55182695 1.996215
0.9882189 0.55402225 2.0091701
0.9806574 0.55836403 2.0299454
0.9563114 0.55313528 2.0155737
0.94974101 0.55818522 2.0388596
0.93366629 0.5577231 2.0418169
0.90693635 0.55077481 2.0207067
0.89493853 0.55268931 2.0322387
0.86752731 0.54498702 2.0080152
0.8521688 0.5447191 2.0112512
0.84643012 0.55070049 2.0377023
0.81636596 0.54078507 2.0047789
0.80074555 0.54024786 2.0067327
0.78233397 0.53777176 2.0013289
0.76955569 0.5391472 2.0102835
0.75770873 0.54124171 2.0218861
0.73213321 0.53341764 1.9960376
0.72518843 0.53912526 2.0211239
0.70867801 0.53781104 2.0196371
0.69253993 0.53672951 2.018939
0.66879392 0.52957684 1.995102
0.65441233 0.52968633 1.9987167
0.64529532 0.53415877 2.0188737
0.62359673 0.52818227 1.9991537
0.60865676 0.52778226 2.0005922
0.59509891 0.5285905 2.0065739
0.58015293 0.52817518 2.0078039
0.54931027 0.51289588 1.9519414
0.51241344 0.49101242 1.8704854
0.51929837 0.51103336 1.9498965
0.51545197 0.52131104 1.9919149
0.49790573 0.51792425 1.9812793
0.48281556 0.51696843 1.9799248
0.4571391 0.50427693 1.9331442
0.44567913 0.50696528 1.9456794
0.43302628 0.50842613 1.9534149
0.41000307 0.49740314 1.9127017
0.39693302 0.49811208 1.9173577
0.38758764 0.50371212 1.9409482
0.37302506 0.50269508 1.9387889
0.3595632 0.50314027 1.9422448
0.34354484 0.49990091 1.9312886
0.33061048 0.50106657 1.9374129
0.30860895 0.48799554 1.8879502
0.29785651 0.49233383 1.9062986
0.28572926 0.49470356 1.9169179
0.27198264 0.49436611 1.9169035
0.25940633 0.49623206 1.9254405
0.24453367 0.4936685 1.9165874
0.23002748 0.49158779 1.9095489
0.21747282 0.49367827 1.9187797
0.20429297 0.49453273 1.9231105
0.19182248 0.49734792 1.9350699
0.1777851 0.49622041 1.9315068
0.16494672 0.49853006 1.9413667
0.15093414 0.49738741 1.9376144
0.13732176 0.49746764 1.9385984
0.12358068 0.49704784 1.9375547
0.11013325 0.49785149 1.9412549
0.097308479 0.50209534 1.9584168
0.083225459 0.5001756 1.9512872
0.069143899 0.49750891 1.9411538
0.055839691 0.50049937 1.953205
0.042163618 0.50101936 1.9554772
0.028472591 0.50177813 1.9586256
0.014869796 0.50696325 1.9791253
0.00096427754 0.50253361 1.9617339
-0.012798669 0.50203764 1.9597554
-0.02667737 0.50424355 1.9683428
-0.040913798 0.50939763 1.9884621
-0.054688927 0.50764674 1.9813535
-0.068866313 0.50958276 1.9886819
-0.08346878 0.51348072 2.0036581
-0.096879959 0.50998282 1.9894871
-0.11138242 0.51238716 1.9984556
-0.1251709 0.51133639 1.9937779
-0.13849774 0.50880134 1.9832067
-0.15308455 0.51093549 1.9909116
-0.16690041 0.51035434 1.987887
-0.18137935 0.51173383 1.9924918
-0.19461581 0.5096615 1.9834881
-0.20793718 0.50807422 1.9763277
-0.22202739 0.50844687 1.9767872
-0.23887219 0.51471108 2.0002511
-0.25363946 0.5160495 2.0043426
-0.26694599 0.5144316 1.996797
-0.27975753 0.51207 1.9862856
-0.29412651 0.51264858 1.9872044
-0.30852243 0.51321924 1.9880224
-0.32294458 0.51378185 1.9887384
-0.34141472 0.52046841 2.013253
-0.35287049 0.51635444 1.9955937
-0.36514279 0.51370656 1.9835975
-0.37690428 0.51056319 1.969625
-0.39355198 0.51402706 1.9812706
-0.40824598 0.51478791 1.9823332
-0.42417952 0.51700866 1.9889807
-0.4379459 0.5165298 1.9850861
-0.44675863 0.51042145 1.9593457
-0.46736592 0.51775002 1.9855162
-0.48404562 0.52042395 1.9935848
-0.49829122 0.52040267 1.9911667
-0.51228821 0.5201301 1.9877099
-0.52799082 0.52155721 1.9907218
-0.54401582 0.52321905 1.9945496
-0.55492359 0.52000028 1.9795648
-0.57177889 0.52237654 1.9859763
-0.58929902 0.52522922 1.9941128
-0.5983001 0.52053398 1.9733089
-0.61762136 0.52482712 1.9867738
-0.62809795 0.5215801 1.9713941
-0.61388493 0.49843135 1.8802865
-0.66071779 0.52477652 1.9773262
-0.68929929 0.5358116 2.0159283
-0.68822855 0.5238176 1.9671552
-0.71085703 0.52998298 1.9870735
-0.73049134 0.5337137 1.9976524
-0.7462635 0.53453153 1.9971384
-0.75725543 0.53195989 1.9837977
-0.77545279 0.53445154 1.9894091
-0.79305673 0.53644931 1.993059
-0.80132216 0.5321725 1.9731561
-0.82854283 0.54041207 1.9999155
-0.83891565 0.53756618 1.985217
-0.85866803 0.54072523 1.9927846
-0.87857205 0.54387081 2.0001748
-0.90099096 0.54844242 2.0127079
-0.92043066 0.55108011 2.0179515
-0.93470746 0.55059147 2.0115614
-0.94564217 0.548181 1.9980396
-0.95559949 0.54528821 1.9827118
-0.98282164 0.5521844 2.0031385
-0.9987393 0.55261666 1.9997901
-1.0124761 0.55184716 1.9919816
-1.0172879 0.54630744 1.9667981
-1.0451756 0.55314094 1.9864162
-1.0729387 0.55971402 2.0048842
-1.0719345 0.55130649 1.9692161
-1.1078982 0.56188142 2.0017791
-1.1244843 0.56247354 1.9983114
-1.1453975 0.56518471 2.0023153
-1.1552577 0.56244236 1.9867684
-1.1747904 0.56441921 1.9879466
-1.1789793 0.55906886 1.9630717
-1.2004961 0.56196713 1.9673324
-1.2083858 0.55849379 1.949038
-1.240288 0.56606668 1.9694723
-1.2678537 0.57149768 1.9821719
-1.2846025 0.57197976 1.9774263
-1.3088042 0.5757286 1.9839331
-1.3186313 0.57314038 1.9683391
-1.3380957 0.57475257 1.967214
-1.3565117 0.5758822 1.9643122
-1.3710668 0.57536548 1.9556633
1.4073806 0.56697929 1.9765414
1.3815579 0.56296861 1.9694558
1.3652692 0.56279486 1.9757662
1.350596 0.56329083 1.9843693
1.3380276 0.56468695 1.9961098
1.3189591 0.56334025 1.9979995
1.2793494 0.5530805 1.9678153
1.267379 0.55466396 1.9799151
1.2656267 0.5608148 2.0084529
1.2329175 0.55323029 1.9873248
1.2419385 0.56441623 2.0341046
1.2114748 0.55771548 2.0159009
1.1956209 0.55765265 2.0217166
1.1739086 0.55481929 2.0172973
1.1633793 0.55726618 2.032136
1.1427331 0.55486751 2.0290885
1.1282858 0.55545413 2.0369382
1.1082358 0.55326039 2.0344148
1.0869124 0.55035901 2.0291357
1.0747355 0.55207211 2.0409038
1.0446695 0.54451114 2.0179896
1.0233151 0.54133326 2.0112576
0.99995023 0.53697956 1.999971
0.99640417 0.54329836 2.0286767
0.97906727 0.54217744 2.0293572
0.96674085 0.54383969 2.0404568
0.93392867 0.53384554 2.0073376
0.92050254 0.53478688 2.0154932
0.90385079 0.53385431 2.0164521
0.8872354 0.53291208 2.0172782
0.86683023 0.52962184 2.0090334
0.85675263 0.53263682 2.0248082
0.83539635 0.52862251 2.0135703
0.81424409 0.52459383 2.002136
0.80509514 0.52829254 2.0203388
0.79187196 0.52940685 2.0285404
0.77409488 0.52746093 2.0248423
0.75675058 0.52573943 2.0219078
0.74280953 0.52636075 2.0279667
0.72882438 0.52697557 2.0339305
0.70521808 0.52051467 2.0122621
0.68727213 0.51804584 2.0060091
0.67435354 0.51934159 2.0143619
0.65565592 0.51614547 2.0050716
0.63712418 0.51293778 1.9956216
0.62421227 0.51421064 2.0036523
0.60897779 0.51358533 2.0041587
0.58719319 0.50727087 1.9821811
0.56788754 0.50283641 1.9674736
0.56004012 0.50858009 1.9928373
0.54474401 0.50768369 1.9919347
0.5327124 0.50986344 2.0031285
0.51307172 0.50467938 1.985083
0.49394536 0.4997201 1.967808
0.47417399 0.49379793 1.9465905
0.45694029 0.49024019 1.9346548
0.44634771 0.49380788 1.9509934
0.43117446 0.49237436 1.9473573
0.41203925 0.48617077 1.9246066
0.40222064 0.49091128 1.9454533
0.3864767 0.48850003 1.9376752
0.37231681 0.48798677 1.9374077
0.35818028 0.48746604 1.9370396
0.34153908 0.48335895 1.9222249
0.3228558 0.4759005 1.8938718
0.30768964 0.47320461 1.8845285
0.29712686 0.47766483 1.9038579
0.27978387 0.47113112 1.8789443
0.26564178 0.46960491 1.874079
0.25273782 0.47022232 1.8777728
0.23516783 0.46174634 1.844774
0.22255813 0.46258718 1.8492279
0.21585794 0.47657999 1.9066668
0.20084725 0.47286409 1.8926449
0.18537813 0.46746385 1.8717464
0.17285568 0.46923643 1.8797354
0.15656546 0.46022731 1.8441058
0.14361939 0.46030864 1.8451304
0.12821929 0.45175985 1.8112005
0.11703444 0.45781514 1.8362557
0.10223722 0.44948918 1.8030835
0.089053556 0.44690534 1.7930715
0.076055273 0.44455385 1.7839364
0.062503546 0.43740165 1.7553055
0.050041471 0.43623391 1.7508379
0.037789814 0.43673718 1.7530787
0.025453454 0.43627492 1.7513528
0.012846549 0.42597759 1.7097396
0.00084042462 0.42598134 1.7097864
-0.01093325 0.41710895 1.6738306
-0.022623725 0.41590124 1.6688622
-0.034938432 0.42307687 1.6977872
-0.051214505 0.46236393 1.8566679
-0.067805253 0.48797774 1.9600939
-0.082793772 0.49536639 1.9896551
-0.097026914 0.49675536 1.9948608
-0.11101529 0.49669889 1.994151
-0.12469706 0.49543691 1.9885002
-0.13991468 0.49991667 2.0060046
-0.1552345 0.50390851 2.0214591
-0.16755562 0.49831295 1.9980968
-0.18322383 0.50276732 2.0152783
-0.1970719 0.50194627 2.01108
-0.21087068 0.501118 2.0067897
-0.22569375 0.50267512 2.0120571
-0.23877442 0.50039673 2.0017896
-0.25196519 0.49859038 1.9933673
-0.26530579 0.49725562 1.9867862
-0.2809839 0.50021619 1.997429
-0.29625964 0.50221181 2.0041094
-0.31193778 0.5046764 2.0125957
-0.3243542 0.5018791 1.9998704
-0.33145794 0.49143869 1.9564277
-0.35121736 0.4998472 1.9885522
-0.36499149 0.4994176 1.9851497
-0.37909809 0.4994579 1.9835626
-0.38813609 0.49305654 1.9561493
-0.40982521 0.50261319 1.9924654
-0.42380479 0.50239205 1.9896165
-0.43714342 0.50145 1.9838256
-0.45277801 0.50311822 1.9883689
-0.46452624 0.50049782 1.9757658
-0.48066774 0.5026257 1.9819858
-0.49692002 0.50474435 1.988079
-0.50847387 0.50210559 1.9752204
-0.52086234 0.50041145 1.9660569
-0.53010738 0.49586633 1.9455646
-0.5544374 0.50530291 1.9802681
-0.56994879 0.50643086 1.9820307
-0.59015656 0.5115748 1.9995261
-0.60392809 0.51102716 1.994506
-0.61737472 0.5102365 1.988464
-0.6190663 0.49998811 1.9452693
-0.62018812 0.48974577 1.9021484
-0.66259199 0.51183903 1.9854883
-0.6809268 0.51479405 1.9937826
-0.69654775 0.51561677 1.9936558
-0.71025461 0.51501811 1.987913
-0.7278927 0.51723677 1.9930426
-0.74091488 0.51615274 1.9852639
-0.76659232 0.52375692 2.0110393
-0.78076082 0.52335906 2.0057256
-0.79632282 0.52389282 2.0039306
-0.81117588 0.52394903 2.0002131
-0.82417363 0.52282637 1.9918903
-0.84235638 0.5249747 1.996039
-0.86178732 0.52781314 2.0027144
-0.86466926 0.52059168 1.9708817
-0.88884044 0.5262149 1.9879912
-0.90248287 0.52552265 1.9809364
-0.92990512 0.53274721 2.0038209
-0.94448191 0.53249991 1.9982451
-0.96447968 0.5352689 2.003973
-0.97993046 0.53546792 1.9998978
-0.99451315 0.5351938 1.9939619
-1.0134412 0.53723139 1.9966077
-1.0355656 0.54087847 2.005147
-1.0475202 0.53918487 1.9936351
-1.0580007 0.53679204 1.979476
-1.0923561 0.54640907 2.0097961
-1.1009918 0.5430724 1.9919609
-1.1099089 0.53996396 1.9749531
-1.1349614 0.54468328 1.9867007
-1.1495496 0.54432166 1.9796453
-1.1709836 0.54716843 1.9842414
-1.1930406 0.5502286 1.989472
-1.1774615 0.53607517 1.9320219
-1.2192168 0.54805291 1.9694419
-1.2512546 0.55541748 1.9898573
-1.2768686 0.5597837 1.9992334
-1.2779118 0.55340302 1.9698737
-1.3041782 0.55796754 1.9797179
-1.3214945 0.55863965 1.9755018
-1.3388176 0.55929881 1.9711426
-1.3627452 0.56266969 1.9762858
-1.3718113 0.55989724 1.9595962
1.3760713 0.53874129 1.9349831
1.3750494 0.54452401 1.9628901
1.3604765 0.54501265 1.9715638
1.3627554 0.55234295 2.005198
1.3586915 0.55724621 2.0300236
1.313774 0.54531038 1.9928716
1.2874068 0.54087716 1.9830694
1.2743026 0.5419755 1.9935838
1.247173 0.53706163 1.9816852
1.2381482 0.5399186 1.9985768
1.2324829 0.54433221 2.0212765
1.226562 0.54874611 2.0439944
1.1986978 0.54332983 2.029726
1.1745088 0.53945738 2.0210819
1.1630111 0.54138821 2.034241
1.1347654 0.53546894 2.017554
1.119011 0.53536153 2.0227852
1.1092622 0.53816468 2.039042
1.0906626 0.53669262 2.038909
1.058599 0.52845657 2.0127039
1.0447543 0.52920711 2.0208294
1.017692 0.52318501 2.0027628
1.0034841 0.52368903 2.0097346
0.9922179 0.52576721 2.022737
0.97115755 0.52263951 2.0154674
0.96557319 0.52787328 2.0406258
0.95112276 0.52835047 2.0472283
0.92578745 0.52269781 2.0297723
0.89323598 0.5127148 1.9951557
0.87834394 0.51270187 1.9994692
0.87071455 0.51700085 2.020685
0.86321187 0.52152705 2.0427883
0.83730042 0.51489425 2.0207567
0.82666868 0.51758742 2.0354931
0.81051052 0.51685607 2.0365961
0.78384131 0.50926799 2.0103345
0.77103776 0.51057011 2.0193098
0.75544178 0.5100379 2.0209029
0.74385166 0.51224297 2.0333588
0.72170138 0.50711775 2.0163984
0.70046681 0.50243598 2.0010705
0.68105012 0.49888694 1.990157
0.67500436 0.50519109 2.0187962
0.64908922 0.49657419 1.9872648
0.63715678 0.49850619 1.9981598
0.61161089 0.4896296 1.9652803
0.60760659 0.49798614 2.0020363
0.58256042 0.48908415 1.9687988
0.56925052 0.48983678 1.9746106
0.55510694 0.48989215 1.9775221
0.54324347 0.49201569 1.9887866
