# .PCD v0.7 - Point Cloud Data file format
VERSION 0.7
FIELDS x y z
SIZE 4 4 4
TYPE F F F
COUNT 1 1 1
WIDTH 1494
HEIGHT 1
VIEWPOINT 0 0 0 1 0 0 0
POINTS 1494
DATA ascii
-0.43949056 0.78529751 2.0074573
-0.45294863 0.78317791 1.9998296
-0.46907234 0.78565574 2.0039577
-0.48157254 0.78209841 1.9925028
-0.49932551 0.7870301 2.0027642
-0.51655895 0.79088384 2.0101604
-0.52798581 0.78588039 1.9948009
-0.54825294 0.79394984 2.0127959
-0.56655234 0.79881948 2.0224974
-0.57705343 0.79272592 2.0041595
-0.58864057 0.78839219 1.990266
-0.60464948 0.79004782 1.9915439
-0.62347335 0.79521471 2.0016398
-0.63342708 0.78909111 1.9830256
-0.65674025 0.79950994 2.0062125
-0.67598838 0.80462623 2.0158522
-0.69148636 0.80515331 2.0138056
-0.70668471 0.80531639 2.0107608
-0.71904594 0.80230707 1.9996687
-0.73192948 0.79999161 1.990265
-0.74733704 0.80047238 1.9878024
-0.76975727 0.80829811 2.0036042
-0.78598785 0.80944794 2.0026095
-0.79601485 0.80428636 1.9858207
-0.81782991 0.81100589 1.9985076
-0.82946819 0.80757254 1.9858879
-0.84717572 0.81006545 1.9878794
-0.86161751 0.80940288 1.9819791
-0.8801735 0.81256133 1.9854153
-0.89307314 0.81047946 1.9758629
-0.90939224 0.81151843 1.9739045
-0.93127662 0.81740808 1.9837178
-0.95174503 0.82188481 1.9899367
-0.96827316 0.82287067 1.9875263
-0.99434888 0.83181262 2.0043421
-1.004326 0.82721937 1.9881862
-1.0200952 0.82746387 1.9836932
-1.0440726 0.83425975 1.9949034
-1.0581822 0.83308679 1.9867951
-1.0695648 0.82983214 1.9736314
-1.0830677 0.82829207 1.9645276
-1.1156698 0.84119594 1.9897949
-1.1246506 0.83617842 1.9722095
-1.1325002 0.83046913 1.9529717
-1.1695366 0.84602755 1.9839942
-1.1864377 0.84679961 1.9798788
-1.1979961 0.84378815 1.9667836
-1.2089362 0.84042513 1.9528284
-1.2321787 0.84559113 1.9587547
-1.2444959 0.84322363 1.9469934
-1.2546705 0.83948177 1.9320002
-1.2966189 0.85682923 1.9657477
-1.3136114 0.857463 1.9606344
-1.3332285 0.85977399 1.9592844
-1.3528938 0.86206079 1.9577646
-1.3645408 0.85924459 1.9444906
-1.3814964 0.85979789 1.9388425
-1.4000856 0.86134344 1.935356
1.3907411 0.82872826 1.8935416
1.4021319 0.84511173 1.9383689
1.3813596 0.84226519 1.938776
1.3741248 0.84770274 1.9583478
1.3501455 0.84281719 1.9538103
1.3263035 0.83790064 1.949043
1.3146039 0.84062904 1.9621035
1.306397 0.84568536 1.9806222
1.2964578 0.84973288 1.9967507
1.2626346 0.8380304 1.9754449
1.2626137 0.84875077 2.0073187
1.2291625 0.83698517 1.985516
1.2038912 0.83055365 1.9762496
1.1937425 0.83452255 1.9918243
1.1858101 0.84016901 2.0114222
1.1645097 0.83636886 2.0081623
1.1539848 0.8403098 2.0235505
1.1327733 0.83647037 2.019979
1.1062562 0.82854766 2.006309
1.0871315 0.82601219 2.0056322
1.065439 0.8214227 1.9998006
1.0438912 0.81680954 1.9937698
1.0199238 0.81013489 1.9825143
1.0353839 0.8350538 2.049207
0.99509054 0.81508279 2.0048623
0.97801268 0.81379586 2.0066159
0.95693237 0.80908352 1.999741
0.94235998 0.80980933 2.0063062
0.92852819 0.81120628 2.0144782
0.9100135 0.8084901 2.0122695
0.88893259 0.80336124 2.0038853
0.86206579 0.79273206 1.9815084
0.86120278 0.80606246 2.0194211
0.84724408 0.80739737 2.0270503
0.83180922 0.80734879 2.031106
0.80281508 0.79388994 2.0010197
0.79579073 0.80205691 2.0257542
0.76937151 0.79061323 2.0004873
0.7601136 0.79669988 2.0198133
0.74288887 0.79451418 2.017947
0.72194397 0.788176 2.0053353
0.712053 0.79389298 2.0235498
0.68799877 0.78372431 2.0008676
0.65778297 0.76592976 1.9583684
0.64766669 0.77126276 1.9753391
0.63649189 0.77555364 1.9895836
0.6232062 0.77741539 1.9974972
0.62095517 0.79346794 2.0421481
0.59666568 0.7814579 2.0139687
0.5815919 0.78121185 2.016217
0.56500906 0.77887249 2.0129361
0.54973149 0.77825487 2.0140529
0.53590149 0.77970928 2.0204999
0.51527536 0.77107662 2.0005102
0.50060791 0.7711156 2.0030887
0.48746625 0.77357823 2.0119455
0.47124812 0.77116007 2.0079372
0.45222858 0.76385444 1.9910029
0.44185942 0.77116013 2.0123744
0.42078614 0.75964421 1.9841701
0.41002285 0.76658368 2.0044594
0.39395553 0.76375282 1.9989437
0.37868273 0.76230431 1.9969908
0.36229226 0.75840056 1.9884719
0.34860632 0.76006901 1.9945995
0.33546656 0.7631247 2.0043347
0.31970882 0.76023203 1.9982556
0.30489805 0.75942343 1.9976181
0.29051477 0.75965202 1.999658
0.27599168 0.75951999 2.0006709
0.26110858 0.75832754 1.9987959
0.24535663 0.75432438 1.9893769
0.23714739 0.77445531 2.0440536
0.21641013 0.75363004 1.9897476
0.20397033 0.76079345 2.0098205
0.1889008 0.7584939 2.0046394
0.17423835 0.75758338 2.0030842
0.15864761 0.75210726 1.9892882
0.14581777 0.75993216 2.0108778
0.12978126 0.75092858 1.9875261
0.11564865 0.7520746 1.9911705
0.1025097 0.76092082 2.0152979
0.0876946 0.75819016 2.0084641
0.073727533 0.76316011 2.0221181
0.058944892 0.76005626 2.0141475
0.043849174 0.74957842 1.9864126
0.029899074 0.75802141 2.0091379
0.015240968 0.74752039 1.9811983
0.0010045504 0.75313663 1.9962381
-0.01323445 0.74682069 1.979339
-0.027361296 0.74400008 1.9717083
-0.041614931 0.74537569 1.9752175
-0.055946425 0.74709105 1.979565
-0.069881178 0.74388719 1.9707097
-0.08373227 0.74102348 1.9626973
-0.087012805 0.65893674 1.7431879
-0.092143998 0.60980028 1.6116381
-0.10321414 0.6065709 1.6025554
-0.11548559 0.61034071 1.6120861
-0.12753381 0.61234903 1.6168585
-0.13854168 0.60944408 1.6084793
-0.15098993 0.61283457 1.6168178
-0.16217068 0.61096317 1.6110839
-0.17307858 0.60838336 1.6034133
-0.1855855 0.6113953 1.6105649
-0.19797818 0.61369729 1.6157643
-0.21009655 0.61493963 1.6180848
-0.22099744 0.61267537 1.6110356
-0.2326057 0.61250108 1.6094817
-0.24378563 0.61126947 1.6050687
-0.25520733 0.61072868 1.6024331
-0.26828331 0.6140213 1.6098896
-0.28004679 0.6141603 1.6089343
-0.29181132 0.6142903 1.6078969
-0.34977651 0.70791644 1.853651
-0.39659289 0.77286279 2.0232401
-0.40837231 0.76732475 2.0066895
-0.42397121 0.76909816 2.0093434
-0.43764383 0.76737553 2.0027208
-0.4530921 0.76877701 2.0042417
-0.46710405 0.76773006 1.9992563
-0.47321197 0.75415015 1.9613527
-0.49836048 0.77082109 2.0026586
-0.51741832 0.77738661 2.0173612
-0.52934223 0.77316684 2.0037796
-0.54452068 0.77380037 2.00281
-0.55444849 0.7671358 1.9827517
-0.57595241 0.77641881 2.0041478
-0.5896191 0.77493638 1.9974385
-0.60673356 0.77794719 2.0023189
-0.61814278 0.77367371 1.9882351
-0.63334614 0.77423722 1.9866172
-0.64885026 0.77513462 1.9857806
-0.65905333 0.76980007 1.9687977
-0.68083459 0.77792728 1.9864248
-0.7007457 0.78361684 1.9976429
-0.71298289 0.78066647 1.9865767
-0.73248982 0.78563398 1.9957286
-0.7495473 0.78782779 1.9976698
-0.76867729 0.79207122 2.0047393
-0.78148681 0.78976369 1.9950131
-0.80112964 0.79431868 2.0026667
-0.82480711 0.80263084 2.0197217
-0.83405417 0.79685348 2.0009599
-0.84709573 0.79484332 1.991691
-0.86525172 0.79761833 1.9944221
-0.88236135 0.79934967 1.9944195
-0.90143907 0.80277485 1.9985672
-0.91360414 0.8000325 1.9871582
-0.93437272 0.80479044 1.9944316
-0.94805396 0.80338889 1.9862231
-0.95921785 0.79993254 1.9728438
-0.97646087 0.80157471 1.9720676
-0.99795324 0.80660075 1.9795609
-1.0234489 0.81466097 1.9943968
-1.0370945 0.81318873 1.9855934
-1.0467194 0.80865359 1.9692116
-1.0699563 0.81461346 1.9784964
-1.0852689 0.81445605 1.9726899
-1.1000993 0.81394631 1.9659473
-1.1153541 0.81376046 1.9599174
-1.1404248 0.82064307 1.9709194
-1.1462551 0.81368148 1.9483328
-1.1695993 0.8191722 1.9557291
-1.1911666 0.82329029 1.9596736
-1.2079315 0.82402503 1.9553866
-1.228184 0.82708961 1.9565639
-1.2394485 0.82410061 1.9432286
-1.2724978 0.83548957 1.9639218
-1.2842672 0.832798 1.9511119
-1.3125917 0.84077656 1.963377
-1.3237773 0.83771652 1.949546
-1.3353626 0.83497953 1.9364401
-1.3016264 0.80430192 1.8582135
-1.3782829 0.84175825 1.9385716
-1.3897063 0.83897138 1.9251524
1.4213419 0.83082414 1.9397608
1.3950076 0.82479608 1.9326301
1.3628547 0.8151477 1.9167391
1.3671378 0.82732171 1.9525172
1.4072591 0.86173075 2.0414934
1.3669589 0.84712952 2.0135691
1.3569086 0.85114717 2.0300713
1.3146623 0.83481956 1.9974993
1.2872638 0.82763016 1.986694
1.2621119 0.82172161 1.9788038
1.2436332 0.82006192 1.9810858
1.2237082 0.8173933 1.980798
1.209705 0.81866199 1.9900345
1.193225 0.81826597 1.9951183
1.1776881 0.81851482 2.0017042
1.1729287 0.82636344 2.0269954
1.1562667 0.82592785 2.0317822
1.1189876 0.8105458 1.9993285
1.1052973 0.81205523 2.0086825
1.1013464 0.82086748 2.0362272
1.0886965 0.82335979 2.0479698
1.0503302 0.80618757 2.0102525
1.0420992 0.81197625 2.0300703
1.0167643 0.80441105 2.0161543
0.99210399 0.79715186 2.0028355
0.97957373 0.79956329 2.0138893
0.96048206 0.79661065 2.0112441
0.94505996 0.79665452 2.0161235
0.928056 0.79534429 2.0174611
0.90993029 0.7930119 2.0160842
0.88354111 0.78327364 1.9955853
0.876504 0.79065055 2.0189345
0.85855335 0.78827059 2.0171268
0.84464002 0.7895782 2.0247409
0.82960337 0.78986472 2.029645
0.81662929 0.7921629 2.0396903
0.80116779 0.79208982 2.0435154
0.77363509 0.77984601 2.0155628
0.77284753 0.79461133 2.0578823
0.74505877 0.78165132 2.0277913
0.72469848 0.77610731 2.0169189
0.6989615 0.76444745 1.9898735
0.69397497 0.77546853 2.0222435
0.67846781 0.77496177 2.0242915
0.65222061 0.761886 1.9931225
0.63867474 0.7633847 2.0002494
0.6258961 0.76589334 2.0099833
0.60704613 0.76091403 1.9998294
0.59764415 0.76782435 2.0210962
0.57634628 0.75941414 2.0016468
0.56291586 0.76120067 2.0091803
0.55014563 0.76400054 2.0193501
0.53582758 0.76474649 2.0239873
0.52031165 0.76377666 2.0239727
0.49940455 0.75460368 2.0019469
0.48191187 0.75019133 1.99253
0.47054002 0.75532913 2.0086036
0.45525205 0.75430888 2.0081151
0.43740031 0.74883169 1.9955779
0.42303634 0.74915415 1.9985284
0.41331911 0.75802171 2.0244029
0.39371416 0.74874055 2.0013666
0.37862313 0.74766093 2.0003223
0.36423579 0.74794018 2.0028684
0.34774935 0.74375319 1.9932817
0.33449236 0.74640965 2.0021026
0.319805 0.74597031 2.0024896
0.30498976 0.74517673 2.0018451
0.29006708 0.74402857 2.0001659
0.27531195 0.7432124 1.9993118
0.26142824 0.74478847 2.004874
0.24725221 0.74566758 2.0084794
0.22928526 0.73451191 1.9793341
0.2161731 0.73846 1.9911259
0.2027172 0.74171156 2.0009665
0.18921985 0.74529749 2.0116551
0.17292057 0.73752713 1.9913825
0.15788165 0.73421389 1.9831564
0.14391102 0.73570406 1.9879347
0.13000187 0.73787189 1.9944929
0.11568332 0.73796511 1.9953333
0.098949701 0.72049958 1.9482509
0.087640114 0.74328083 2.0107918
0.073851854 0.74988061 2.02917
0.058663592 0.74201536 2.0080395
0.043657031 0.73207325 1.9811701
0.029659055 0.73760825 1.996441
0.015295587 0.73590428 1.9919003
0.00097115524 0.71422553 1.9328058
-0.013138896 0.7273007 1.9684421
-0.026659662 0.71110815 1.9241799
-0.039785873 0.6990363 1.8910959
-0.054307815 0.71139079 1.9245647
-0.07135193 0.74507034 2.016103
-0.084153213 0.73055768 1.9761652
-0.090831324 0.67474693 1.8236179
-0.091843612 0.59623063 1.6092114
-0.10323353 0.59512448 1.6057322
-0.11497691 0.59607363 1.6077961
-0.12726635 0.59942102 1.6163311
-0.13840865 0.59725708 1.6098064
-0.14989656 0.59680402 1.6078844
-0.16136457 0.59634233 1.6058841
-0.17261286 0.5951848 1.6019385
-0.18477044 0.59711123 1.606316
-0.19643487 0.59731048 1.6059433
-0.2095392 0.60162181 1.6166688
-0.21901985 0.5956229 1.5993718
-0.23238429 0.60025805 1.6108499
-0.24355274 0.59904903 1.6064316
-0.25554755 0.59989011 1.6075075
-0.26772362 0.60106468 1.6094245
-0.27914429 0.60051596 1.6066245
-0.29136914 0.60167205 1.6083705
-0.32519913 0.64563251 1.7254703
-0.38847572 0.74261898 1.9851412
-0.40515378 0.7467711 1.9944028
-0.42371541 0.75398791 2.0118108
-0.43896902 0.75503266 2.0125291
-0.45261323 0.75333107 2.0058
-0.46766895 0.75401187 2.0053926
-0.48012233 0.75058299 1.9939059
-0.49063802 0.74441642 1.9750472
-0.50091088 0.73824483 1.9561422
-0.52997923 0.75934684 2.0099504
-0.54615319 0.76133144 2.0126154
-0.55737555 0.75649077 1.9970351
-0.56763327 0.75062329 1.9786868
-0.59059042 0.76142246 2.0045216
-0.60475671 0.7606371 1.9995118
-0.61500925 0.7550841 1.9818218
-0.63098997 0.75665879 1.9829249
-0.64557248 0.75652343 1.9794304
-0.66694903 0.76417845 1.9963702
-0.67892665 0.76096541 1.9846038
-0.70065433 0.76858485 2.0012112
-0.70816064 0.76061159 1.9768316
-0.7340045 0.77225733 2.0037448
-0.7520774 0.77542448 2.0083423
-0.76858634 0.77688646 2.008389
-0.78581917 0.77900964 2.010062
-0.79722393 0.77538425 1.9967169
-0.82119089 0.78388482 2.0147345
-0.83863419 0.78596193 2.0159819
-0.8510235 0.78331292 2.0049376
-0.85883969 0.77662158 1.983438
-0.87962466 0.78168619 1.9921249
-0.89866149 0.78505164 1.9963208
-0.91468477 0.78571624 1.993493
-0.92159647 0.7786606 1.9708837
-0.93669081 0.77863461 1.9661686
-0.95912737 0.78461593 1.9766259
-0.98550129 0.79358059 1.9944862
-1.007975 0.79917687 2.003644
-1.0284995 0.80308145 2.0083866
-1.0339872 0.79530346 1.9836327
-1.0593783 0.80283821 1.9972881
-1.0707756 0.799703 1.9840846
-1.0978336 0.80818647 1.9998132
-1.1142043 0.80867398 1.9954616
-1.1301087 0.80881411 1.9901608
-1.150219 0.81191933 1.9921077
-1.1756436 0.81864107 2.0028453
-1.1791641 0.81013435 1.9759711
-1.1998826 0.81351191 1.9782661
-1.2133085 0.81192154 1.9682921
-1.2266539 0.81031877 1.9582323
-1.2424394 0.81034821 1.9520798
-1.2617706 0.81266046 1.9513726
-1.2899246 0.82052785 1.9639506
-1.3193696 0.82901442 1.9778134
-1.3248314 0.82240832 1.9552944
-1.3529484 0.82985562 1.9663645
-1.374293 0.83302253 1.967047
-1.3734065 0.82279736 1.9358393
-1.4078709 0.83374208 1.9547511
1.4374968 0.82394499 1.9661666
1.4275153 0.82762116 1.9822296
1.3939232 0.8175351 1.9649408
1.4076114 0.83526772 2.0150242
1.3496114 0.810377 1.9613565
1.3479455 0.81911987 1.9895157
1.3213739 0.81275684 1.9806412
1.3089596 0.81505227 1.9929172
1.2841678 0.80960137 1.9860004
1.2565123 0.80218476 1.9740404
1.2580773 0.81347179 2.0084157
1.2197061 0.79889411 1.9783366
1.2247785 0.81276226 2.0191603
1.1897938 0.80006391 1.9934086
1.1885817 0.81003922 2.0244837
1.1644107 0.80442673 2.0162547
1.1260289 0.78870463 1.9822559
1.1198307 0.79539973 2.0048892
1.0943657 0.7884056 1.992669
1.0789597 0.78856075 1.9985284
1.069254 0.79294765 2.0151455
1.0437315 0.78556091 2.0015106
1.0313132 0.78796268 2.0128927
1.017944 0.78970063 2.0225117
0.99533886 0.78421581 2.0133855
0.97784156 0.7826454 2.0142593
0.95836771 0.77941698 2.0107219
0.9433741 0.77978593 2.0164373
0.92717695 0.77915585 2.0194669
0.90019864 0.76929122 1.9982358
0.89973956 0.78213972 2.0363932
0.87528658 0.77421534 2.020005
0.86102057 0.77517962 2.0268645
0.8326472 0.76324737 1.9996067
0.81711006 0.76285774 2.0026753
0.80227125 0.76311773 2.0073824
0.78741044 0.76336634 2.0119829
0.76816964 0.75929517 2.0050128
0.76321864 0.76946837 2.0358963
0.7439943 0.76537257 2.0286922
0.71637625 0.75229198 1.997331
0.71342242 0.76510662 2.0351717
0.69114733 0.75730675 2.0177088
0.67094481 0.75148213 2.0054097
0.66200483 0.75829375 2.0270176
0.64056712 0.75077391 2.0099447
0.63108176 0.75723821 2.0305147
0.60803688 0.74735099 2.0068161
0.59225553 0.74612081 2.0064216
0.57987416 0.74922067 2.0176921
0.56081134 0.74362379 2.0052779
0.54858792 0.74703854 2.0172687
0.53431147 0.74776947 2.0218966
0.51372015 0.73945236 2.0017719
0.49728808 0.73680961 1.9970154
0.48029345 0.73314834 1.9893831
0.47003722 0.7398653 2.0100663
0.45373213 0.73718697 2.0049682
0.43652597 0.73281777 1.9951419
0.41503847 0.72071356 1.9639746
0.40839791 0.73444706 2.0037007
0.39076436 0.72869551 1.9898096
0.3785581 0.73301166 2.0035474
0.36968362 0.74438095 2.0366788
0.35009369 0.73422235 2.0103941
0.33458841 0.73212069 2.0062394
0.30415216 0.69567746 1.9071018
0.29594323 0.70902789 1.9454501
0.27716243 0.6971181 1.9138763
0.26622811 0.7047298 1.9362514
0.25137141 0.70222646 1.9305563
0.2468677 0.73004586 2.0088639
0.23299895 0.73190969 2.0151815
0.21794604 0.7300542 2.0111105
0.2034335 0.72987384 2.0116167
0.18883795 0.7293452 2.0110848
0.17232449 0.72070765 1.9879423
0.15851843 0.72285563 1.9947034
0.14422129 0.72296846 1.9957391
0.12166904 0.6771614 1.8689262
0.11177649 0.69919187 1.9307957
0.098929659 0.7063607 1.9512548
0.088355824 0.73479462 2.0308764
0.073229142 0.729114 2.01544
0.058244906 0.72240871 1.9970747
0.044182919 0.72649992 2.0087166
0.029833766 0.72754079 2.0117927
0.015178247 0.71607345 1.9799466
0.0010009271 0.72182178 1.996003
-0.012881221 0.6991865 1.9329
-0.026460227 0.69207859 1.9130003
-0.040305965 0.69441795 1.9193597
-0.052034918 0.66837716 1.8465897
-0.065864749 0.67441219 1.8631204
-0.08306624 0.70711344 1.9538453
-0.090760686 0.66112536 1.8253715
-0.091647603 0.58340108 1.6085545
-0.10366955 0.58602887 1.6154029
-0.11499704 0.58459717 1.6108981
-0.12648524 0.58416963 1.6091331
-0.13835323 0.58542085 1.6119801
-0.15087332 0.58902436 1.621305
-0.16167191 0.58587205 1.6118014
-0.17334083 0.58608472 1.6115913
-0.18469626 0.58527732 1.6084945
-0.19613001 0.58479875 1.606256
-0.20885839 0.58801848 1.6142126
-0.21981555 0.58617479 1.6080778
-0.23202634 0.58769137 1.6111938
-0.24247855 0.58482164 1.6021155
-0.25544608 0.58800352 1.6097177
-0.26639521 0.58646441 1.6042117
-0.27903363 0.58861762 1.6088442
-0.29274878 0.59277815 1.6189442
-0.30886722 0.60129648 1.6409708
-0.38553873 0.72268826 1.9735401
-0.40842831 0.73818338 2.0142493
-0.42326087 0.73854858 2.0132442
-0.43810147 0.73890281 2.0121341
-0.45109969 0.73622739 2.0026445
-0.46801588 0.73991364 2.0105166
-0.4737018 0.72616053 1.9705975
-0.47906983 0.71274519 1.9316158
-0.48946774 0.70736712 1.9145796
-0.51131892 0.71837968 1.942173
-0.52918673 0.72335088 1.9531769
-0.56055003 0.74602073 2.0121751
-0.57449305 0.7449373 2.0064623
-0.59155452 0.74785066 2.0115147
-0.60601461 0.7474131 2.0074
-0.62183368 0.74863249 2.0076911
-0.62720388 0.73750883 1.9745913
-0.64807719 0.74470609 1.9908663
-0.66655171 0.7488879 1.9988929
-0.68608481 0.75405097 2.0094416
-0.69715315 0.74988902 1.9948684
-0.71719772 0.75535458 2.006021
-0.73422337 0.75748205 2.008127
-0.75000656 0.75826818 2.0065582
-0.7617954 0.75506443 1.9942838
-0.78026503 0.75847834 1.9995433
-0.78635961 0.74996102 1.9730549
-0.81579012 0.76360255 2.0052135
-0.82558888 0.75870615 1.9881927
-0.85823649 0.77460724 2.025955
-0.86728716 0.76902616 2.006968
-0.87157422 0.75948673 1.9775765
-0.89663476 0.76806593 1.9956557
-0.90715754 0.76411337 1.9808164
-0.92347002 0.76508725 1.9787848
-0.95269996 0.77655894 2.0039604
-0.97006845 0.77815115 2.0032852
-0.97917491 0.77316993 1.9854971
-1.0019841 0.77899522 1.9955891
-1.0074676 0.77137822 1.9709114
-1.0291244 0.77618712 1.9781677
-1.0526992 0.78227961 1.9885679
-1.0755888 0.78769368 1.9970719
-1.0887244 0.7859118 1.9870843
-1.1150434 0.79356259 2.0010092
-1.1152024 0.78264177 1.9676862
-1.1431086 0.79122621 1.983722
-1.1508653 0.78582025 1.9643062
-1.177173 0.79305613 1.9766445
-1.1959261 0.79507905 1.975739
-1.2216311 0.80161101 1.9859799
-1.2445543 0.8061735 1.9911376
-1.2499551 0.7994138 1.9680513
-1.2760146 0.80587035 1.9776782
-1.2966007 0.80875331 1.9783121
-1.316741 0.8112911 1.9779714
-1.3480228 0.82054979 1.9939674
-1.3545395 0.81469274 1.97284
-1.353814 0.80466884 1.9415978
-1.3733991 0.80681008 1.9399301
-1.3875272 0.80573308 1.9303765
1.4536511 0.81669879 1.9925843
1.4468153 0.82219392 2.013417
1.3966351 0.80289894 1.9728769
1.4211158 0.82657593 2.0387092
1.3741617 0.80877274 2.001431
1.3373396 0.79657602 1.9777957
1.3161011 0.79347742 1.9767164
1.2959826 0.79098588 1.9770346
1.2871836 0.7954272 1.9947516
1.2787026 0.8001796 2.0132489
1.2430211 0.78781468 1.9882072
1.2280316 0.78841335 1.9959599
1.2159263 0.79090357 2.0084815
1.1993637 0.7905224 2.0135894
1.1470516 0.76624972 1.9571066
1.1422126 0.77345949 1.9814574
1.1231437 0.77109963 1.9810575
1.1220326 0.78117597 2.0128314
1.0978875 0.77527446 2.0030692
1.0869 0.77862769 2.017302
1.056376 0.76787853 1.9945854
1.0427566 0.76927984 2.0035274
1.0192088 0.76328814 1.9929544
1.0212218 0.77654928 2.033006
0.99356556 0.76731116 2.0136533
0.98183554 0.7702747 2.026444
0.9631058 0.76775378 2.0246172
0.92813897 0.75199485 1.9874195
0.91648638 0.75491506 1.9998113
0.9101063 0.76235086 2.0242391
0.88824922 0.75685507 2.0140002
0.86994863 0.75425023 2.011385
0.86384505 0.76231593 2.0373938
0.84731692 0.76130819 2.0389283
0.81876379 0.74925905 2.0105162
0.80319893 0.74886543 2.0134721
0.79071397 0.7513833 2.0242479
0.76067132 0.73698884 1.988974
0.7585023 0.74956459 2.0269623
0.73710561 0.74326444 2.0134721
0.72575593 0.74704403 2.0274053
0.70711476 0.74331927 2.02074
0.68374902 0.73435873 1.999595
0.67113239 0.73680121 2.0096321
0.65462786 0.73498958 2.0079026
0.63448638 0.72891545 1.9943286
0.62347376 0.73328942 2.0094781
0.60929185 0.73405802 2.0146174
0.58658516 0.72433829 1.9906398
0.57718986 0.7309792 2.0118847
0.56222683 0.73073256 2.0139775
0.55046034 0.73473907 2.0278211
0.53757024 0.73742664 2.037946
0.52200609 0.73649454 2.0379229
0.49968544 0.72569525 2.0102756
0.4791052 0.71684694 1.9879345
0.46398556 0.71587181 1.9874915
0.4315455 0.68725049 1.9095352
0.42924353 0.7063176 1.9650496
0.40373427 0.68719548 1.9134157
0.40701434 0.71745896 2.0003569
0.3939347 0.72005504 2.0095844
0.37866136 0.71868682 2.0075943
0.36343747 0.71730703 2.0054932
0.35002926 0.71954507 2.0135152
0.33467984 0.71781361 2.0102744
0.31527221 0.70682693 1.9808165
0.2927855 0.68756664 1.9278581
0.26959452 0.66465056 1.8644142
0.25585353 0.66385078 1.8634087
0.24057199 0.65874398 1.8501377
0.23963575 0.69462091 1.9529184
0.22855231 0.70371938 1.9798259
0.21548744 0.70751953 1.9916629
0.20292504 0.71362704 2.0099907
0.18827803 0.71277732 2.0085108
0.1740665 0.71357173 2.0116305
0.15945019 0.71270072 2.0099499
0.14351934 0.70519745 1.989344
0.12388342 0.67582715 1.9064718
0.10813235 0.66299748 1.8705337
0.095027618 0.66505903 1.8768818
0.081432052 0.66379887 1.8737152
0.072231121 0.70493037 1.9911491
0.057824783 0.70299047 1.9859356
0.043989532 0.70899117 2.0032623
0.029786564 0.71200001 2.0120049
0.015440262 0.71400452 2.0178204
0.0010096368 0.71367931 2.016933
-0.013146086 0.6994276 1.9763199
-0.026893374 0.68947333 1.947879
-0.040002301 0.67553353 1.9080279
-0.05325754 0.67052984 1.8935602
-0.06650763 0.66750443 1.884663
-0.077728786 0.64856994 1.8304274
-0.087209582 0.62267381 1.7563424
-0.092352308 0.57624114 1.6238123
-0.10356692 0.57385123 1.616549
-0.11521496 0.57410222 1.6167423
-0.12592059 0.57004124 1.604625
-0.13741797 0.56994486 1.6037241
-0.1500335 0.5741421 1.6149608
-0.16160494 0.57402813 1.6138945
-0.17286982 0.57291347 1.6099339
-0.18451297 0.57311374 1.6096491
-0.1960482 0.57297492 1.6083468
-0.20733522 0.5721665 1.6050931
-0.21833372 0.57068956 1.5998935
-0.23060007 0.57250839 1.603966
-0.24405365 0.57696009 1.6154169
-0.25490198 0.5751276 1.6090437
-0.2670494 0.57625836 1.6109846
-0.27828076 0.57540041 1.6072553
-0.29146761 0.57849246 1.6146027
-0.30270058 0.57761759 1.6107103
-0.38115695 0.70032108 1.9543447
-0.40166044 0.71157026 1.984084
-0.41894901 0.71654332 1.9960726
-0.43543443 0.71985614 2.0033059
-0.45163408 0.7224977 2.0085664
-0.47090319 0.72973037 2.0265853
-0.4819217 0.72412658 2.0086062
-0.49496311 0.72180301 1.9997476
-0.48680982 0.6895892 1.9074838
-0.50668526 0.69776762 1.9278617
-0.51316684 0.68755752 1.896965
-0.5295409 0.69079047 1.9034129
-0.57490927 0.7307092 2.0115294
-0.58511174 0.72505212 1.9930171
-0.60834837 0.73542821 2.0188236
-0.62505531 0.73760408 2.0218215
-0.63418084 0.73094028 2.0003474
-0.64883572 0.73080796 1.9968377
-0.66169709 0.7287063 1.9878393
-0.67658609 0.72888047 1.9850298
-0.69116247 0.72871768 1.9812194
-0.71550632 0.73864496 2.0049324
-0.72766995 0.73584944 1.9937347
-0.74759316 0.74085552 2.0037501
-0.76033759 0.7386905 1.9941291
-0.78082848 0.74398994 2.0047202
-0.79213673 0.74050492 1.9913715
-0.80329764 0.73701411 1.9779657
-0.82330692 0.74162072 1.9863762
-0.84714216 0.74944746 2.0033312
-0.86828715 0.75466096 2.0130944
-0.88242638 0.75371063 2.0061848
-0.91075146 0.76470363 2.0311701
-0.92501771 0.76372236 2.0239689
-0.92771465 0.75337797 1.991753
-0.95016569 0.75915068 2.0024233
-0.9670893 0.76039374 2.0009296
-0.98279709 0.76065695 1.9967469
-0.99807674 0.76058584 1.9915978
-1.0227472 0.76756454 2.0049253
-1.0493991 0.77579969 2.0213764
-1.0569897 0.76990795 2.0006416
-1.0728116 0.770096 1.9957844
-1.0985634 0.77730471 2.009129
-1.1112866 0.77522165 1.9981545
-1.1401467 0.78429675 2.0160303
-1.1481833 0.7789951 1.9965588
-1.1569526 0.77432728 1.9787169
-1.1794939 0.77887839 1.9845357
-1.2007185 0.78245169 1.9877011
-1.2136644 0.78060734 1.9769027
-1.2335074 0.78318936 1.9773152
-1.2468555 0.78163451 1.9671134
-1.2897474 0.79840738 2.0031941
-1.302748 0.79649043 1.9918205
-1.322964 0.79897791 1.9914604
-1.3289862 0.79293668 1.969628
-1.3545082 0.79853535 1.9768581
-1.3775058 0.80253142 1.9799287
-1.3809972 0.79520237 1.9547917
-1.4150288 0.80542541 1.9730374
1.4280012 0.78607357 1.9611487
1.4230794 0.79236114 1.9841623
1.3938648 0.78511167 1.9729273
1.3713715 0.78152221 1.9707853
1.3628879 0.7859261 1.9888858
1.3351619 0.77920616 1.9785179
1.3244083 0.78234816 1.9932748
1.2969428 0.77557409 1.982461
1.2758471 0.77248746 1.9809822
1.2553471 0.76968801 1.9801161
1.2599458 0.78240263 2.0194724
1.2289307 0.77304482 2.0013685
1.200199 0.76489615 1.9861974
1.191064 0.76918584 2.0034633
1.1698221 0.76566738 2.0001593
1.1030082 0.73181665 1.9166406
1.1220959 0.75481075 1.9830321
1.137073 0.77564806 2.0439603
1.1023027 0.7626608 2.0150597
1.094834 0.76846033 2.0360405
1.0686007 0.76106602 2.0217059
1.0387188 0.75081396 1.9995157
1.0207957 0.74902642 1.9998757
1.0016559 0.74627757 1.997537
1.0121928 0.76589847 2.0555677
0.99649489 0.76597553 2.0608006
0.96379125 0.75277269 2.02987
0.94751817 0.75218087 2.0330322
0.91596103 0.73923415 2.002382
0.90264809 0.74082243 2.0112548
0.88963854 0.74271882 2.0209105
0.84106094 0.71446705 1.9476734
0.86188644 0.74521595 2.0364807
0.83600497 0.73596376 2.0151932
0.81863415 0.73400009 2.0138726
0.80411571 0.73456824 2.019464
0.78614205 0.73194104 2.0161135
0.77396917 0.73471755 2.0276828
0.75870955 0.73461634 2.0311844
0.72987288 0.72109723 1.9971567
0.71645081 0.72256166 2.0048096
0.69706309 0.71794397 1.9953648
0.68605703 0.72194588 2.0099812
0.67250049 0.723382 2.0173476
0.65421826 0.71968466 2.0102015
0.64290851 0.72366393 2.0245862
0.62614232 0.72154462 2.0217106
0.60809332 0.71780771 2.0141673
0.59283996 0.71726686 2.0155666
0.57889444 0.71832114 2.0214093
0.56237417 0.71615189 2.0180321
0.54765511 0.71622115 2.0209274
0.5300526 0.71241903 2.0127275
0.51865178 0.71697301 2.0282438
0.50117368 0.71314651 2.0198011
0.4864817 0.71317309 2.0222673
0.46325061 0.70029283 1.9877406
0.43226749 0.67448759 1.9160479
0.41754085 0.67317533 1.9143382
0.40692729 0.67863214 1.9319758
0.39028829 0.67407113 1.9208004
0.38429424 0.68823743 1.9633743
0.3784118 0.70369792 2.0096786
0.36420032 0.70428532 2.0131524
0.34835371 0.70162809 2.0072045
0.3335349 0.70090044 2.0067399
0.32183585 0.70695978 2.0257974
0.30397341 0.699413 2.0054963
0.2822594 0.68181044 1.956018
0.26903772 0.68395126 1.9635266
0.25077185 0.67279583 1.9324797
0.22725356 0.6454162 1.8543257
0.22570826 0.68091708 1.9582787
0.21382879 0.68788463 1.9795268
0.20081253 0.69192559 1.992236
0.18587784 0.68946892 1.9860259
0.17378876 0.69803488 2.0117521
0.15919533 0.69718075 2.0100629
0.14308409 0.68884981 1.9865731
0.12883271 0.68862301 1.9865593
0.11383225 0.68383998 1.9732279
0.097369909 0.66767955 1.9267275
0.086086303 0.68755609 1.9849859
0.071842067 0.68696332 1.9836359
0.057839569 0.688959 1.989751
0.043260407 0.68314832 1.9730783
0.02972501 0.69616878 2.0111525
0.015394133 0.69748437 2.0150893
0.00099020149 0.68579513 1.9810982
-0.013149419 0.68546581 1.9801106
-0.027210388 0.68350214 1.9742985
-0.041150484 0.6808787 1.9664999
-0.054402232 0.67109913 1.9378083
-0.069132358 0.67982477 1.9629095
-0.081996351 0.67035121 1.934985
-0.087458655 0.6118319 1.7643384
-0.091728926 0.56078416 1.6154392
-0.10304411 0.55941522 1.6109966
-0.11476665 0.56031084 1.6130828
-0.12579243 0.55795211 1.6056575
-0.13727809 0.55785763 1.6047577
-0.14901727 0.55872828 1.6066051
-0.16069667 0.55926597 1.6074289
-0.17299497 0.56174129 1.6138155
-0.18496615 0.56291014 1.6163524
-0.19652958 0.56277347 1.6150472
-0.20736519 0.56068403 1.6080325
-0.2187444 0.56020749 1.6056364
-0.23050018 0.56069487 1.6059734
-0.24115403 0.5585832 1.5987419
-0.25332838 0.56002557 1.6017256
-0.26525187 0.56081164 1.6027535
-0.27672446 0.56061852 1.6008979
-0.2886838 0.56138754 1.6017584
-0.30672169 0.57346195 1.6350965
-0.38160995 0.68698299 1.9600248
-0.40064576 0.69542813 1.9824167
-0.42175385 0.70676208 2.0129814
-0.43793774 0.70936257 2.0183697
-0.45339769 0.71066028 2.0199382
-0.46677998 0.708722 2.0121682
-0.48204681 0.70967597 2.0126026
-0.49644345 0.70933038 2.0092478
-0.51012278 0.70800894 2.0030398
-0.51992506 0.7015298 1.9820818
-0.53435767 0.70148003 1.9793802
-0.54802573 0.70045578 1.9738384
-0.57428598 0.71516526 2.0128534
-0.58526278 0.71058208 1.9970385
-0.60336155 0.7146585 2.0056758
-0.61717725 0.71358824 1.9996704
-0.63888788 0.72148341 2.0188777
-0.6475541 0.71462381 1.9964021
-0.66275918 0.71512496 1.9946004
-0.67858052 0.71625483 1.9944824
-0.69505596 0.71801227 1.9960352
-0.71917123 0.72742379 2.0189002
-0.73140699 0.72468036 2.0076628
-0.74713653 0.72543919 2.0061343
-0.76422453 0.7274614 2.008034
-0.77558041 0.72405428 1.9947613
-0.78261918 0.71682185 1.9708468
-0.81023496 0.72835517 1.998829
-0.82461011 0.72778261 1.9931942
-0.84224695 0.73005778 1.9953305
-0.85586149 0.72882783 1.9877275
-0.88077909 0.73709947 2.0061185
-0.88752496 0.73014098 1.9826534
-0.90924269 0.73552626 1.9928967
-0.92439985 0.7355147 1.9882914
-0.94720954 0.74149394 1.9998888
-0.95835435 0.73829681 1.9864482
-0.97726023 0.74108517 1.9891587
-0.99583566 0.74354094 1.9908546
-1.0191979 0.74944216 2.0017102
-1.0553602 0.76443845 2.0368207
-1.0414613 0.74326581 1.9747934
-1.0637659 0.74817026 1.9826238
-1.0970932 0.76057595 2.0102818
-1.0983419 0.75070661 1.9785141
-1.1191543 0.75429726 1.9824616
-1.1320902 0.75255358 1.972186
-1.1582689 0.75954121 1.9848498
-1.1846904 0.76649928 1.9972478
-1.1830564 0.75536114 1.9620814
-1.2254145 0.77223575 2.0001233
-1.2469019 0.77569371 2.0029042
-1.2629347 0.77571362 1.9966301
-1.2804762 0.77664822 1.9926397
-1.2882047 0.77168131 1.9733433
-1.3234243 0.78310281 1.996147
-1.3410733 0.78397727 1.9916741
-1.3517828 0.78082252 1.9768249
-1.3655858 0.77950782 1.9666299
-1.3809468 0.77910286 1.9586841
-1.3951606 0.77806729 1.9490751
1.4496996 0.78155714 1.9951571
1.4263407 0.77779561 1.9927024
1.3910655 0.76737303 1.9728402
1.3696737 0.76445413 1.9722186
1.3596028 0.76785952 1.987965
1.335606 0.7633872 1.9830695
1.3211799 0.76434284 1.992272
1.3046179 0.76407129 1.9981765
1.2824043 0.7604416 1.9951166
1.2557442 0.75405025 1.9845887
1.2553425 0.76346439 2.0159264
1.2327801 0.75947064 2.0115533
1.2196391 0.76125234 2.0224938
1.1580925 0.73246616 1.9513041
1.1725622 0.75163043 2.0087047
1.161289 0.75459152 2.0225635
1.1401075 0.75110739 2.0189288
1.1149068 0.74484003 2.0075989
1.0999057 0.74530512 2.0144286
1.0759197 0.73960727 2.004353
1.0631722 0.74158102 2.0151181
1.0638226 0.75309831 2.0520287
1.0270897 0.7380994 2.0160391
1.0108182 0.73756957 2.0196819
0.98412621 0.72930098 2.0018299
0.97582436 0.73461461 2.0214441
0.96324825 0.73682994 2.0324364
0.92745233 0.72106504 1.9932877
0.91502839 0.72324872 2.0039709
0.90404767 0.72666645 2.018054
0.89595574 0.73256385 2.0390532
0.87677544 0.72944278 2.0346963
0.85035747 0.72008163 2.0126464
0.8344174 0.71941423 2.0149426
0.81103802 0.71218944 1.998608
0.80397588 0.71929115 2.022707
0.79011029 0.72046173 2.0299668
0.7634173 0.70975232 2.0033693
0.74868596 0.70995826 2.0076842
0.72617584 0.70264584 1.9904598
0.7188493 0.71002644 2.0151029
0.71090126 0.71709359 2.0388439
0.68622893 0.7072314 2.0139964
0.67147839 0.70738405 2.0177624
0.65642077 0.70721257 2.0205202
0.63993621 0.70546025 2.0186415
0.62156504 0.70149541 2.0102816
0.60579616 0.70034587 2.0099533
0.59484607 0.70484883 2.0259099
0.57877964 0.70336473 2.0244648
0.54634798 0.68139237 1.9634321
0.53081113 0.67987359 1.9616332
0.52898526 0.69631892 2.0120564
0.51691681 0.69983494 2.0248334
0.50197726 0.69955635 2.0264854
0.48572239 0.69737232 2.0224934
0.47189903 0.69865197 2.0285466
0.44663802 0.68253541 1.9835848
0.4216398 0.66576189 1.9365238
0.40546957 0.66225314 1.9282211
0.39711264 0.67171037 1.9579195
0.37950945 0.66564864 1.9419678
0.37606922 0.68491632 2.0004637
0.36228174 0.68612438 2.0057905
0.34570661 0.681934 1.9951357
0.32976404 0.67868221 1.9871601
0.31926152 0.68683904 2.0127885
0.30306187 0.68293214 2.0027332
0.28393531 0.6717115 1.9709635
0.27037621 0.67317587 1.9766167
0.25590584 0.67240781 1.9755969
0.24294898 0.67575979 1.9867123
0.22780457 0.67306554 1.9798474
0.21418253 0.67480999 1.986071
0.20001324 0.6749559 1.9874877
0.18329656 0.66587007 1.9614296
0.17132524 0.67394555 1.9862508
0.15723211 0.67437953 1.988319
0.14298363 0.67416722 1.9884001
0.12886378 0.67458135 1.9902755
0.11402162 0.67084849 1.9797505
0.10033033 0.67378855 1.9890031
0.086269841 0.67480934 1.9924818
0.072199278 0.67613864 1.9968127
0.057771716 0.67395622 1.9906245
0.043455992 0.67208183 1.9852847
0.029343704 0.67306268 1.9883767
0.015132473 0.6714865 1.9837893
0.00098058197 0.6651243 1.9648851
-0.01309645 0.66862237 1.9752715
-0.027113348 0.66701627 1.9703944
-0.04119952 0.66762882 1.9720567
-0.055231597 0.66727632 1.9707792
-0.069247812 0.66691399 1.9694061
-0.082492188 0.66049391 1.9499418
-0.087892704 0.60218543 1.7760552
-0.091794342 0.54960847 1.6192355
-0.10275848 0.54635751 1.609107
-0.11424956 0.54628092 1.6083651
-0.12602849 0.54746872 1.6113255
-0.13841474 0.55087441 1.620816
-0.1489501 0.54695672 1.6085002
-0.16137064 0.55002719 1.6168774
-0.17261817 0.54895586 1.6129055
-0.18456438 0.55010146 1.6154541
-0.1954229 0.54806143 1.6085038
-0.20739232 0.54919058 1.61089
-0.21915267 0.54967612 1.6113113
-0.2298639 0.54761356 1.6041392
-0.24216403 0.54935253 1.6081544
-0.25629172 0.55488962 1.623323
-0.26635826 0.55153471 1.61217
-0.28091455 0.55736828 1.6280693
-0.28938663 0.55114633 1.6083653
-0.30693778 0.56202883 1.6389847
-0.37415478 0.65966839 1.9246346
-0.39794806 0.67649746 1.9722512
-0.41877249 0.68729073 2.0019855
-0.43645075 0.69237155 2.0148349
-0.44691926 0.68605649 1.9941994
-0.46753213 0.6952216 2.0188272
-0.48106998 0.69362909 2.0118806
-0.49498591 0.69265938 2.00669
-0.51930076 0.70588028 2.0428102
-0.52243608 0.69037765 1.9951123
-0.53448534 0.6871748 1.9832286
-0.55696493 0.69719744 2.0097113
-0.57726777 0.70405024 2.0268466
-0.58725822 0.69829756 2.007338
-0.60595042 0.7029202 2.0178125
-0.62482339 0.70752716 2.028127
-0.63819569 0.70583588 2.0201616
-0.65003711 0.70256692 2.007592
-0.66351628 0.70117408 2.0003695
-0.67814159 0.70102686 1.9966587
-0.69987351 0.70807582 2.0134926
-0.7146129 0.70790362 2.0095251
-0.72868967 0.70709562 2.0036657
-0.74601048 0.70940471 2.0066221
-0.75805181 0.7067014 1.9952155
-0.77748388 0.71085954 2.0032449
-0.79220355 0.7106334 1.9987243
-0.80938041 0.71257901 2.0002713
-0.82446122 0.71264189 1.9964024
-0.84466422 0.71705091 2.004698
-0.8519811 0.71055794 1.9822135
-0.87494606 0.71711451 1.9963354
-0.91126031 0.73420393 2.0397825
-0.90948331 0.72054511 1.9970571
-0.92663383 0.72208399 1.9967741
-0.95554262 0.73258787 2.0213153
-0.96845275 0.73068708 2.0112326
-0.97877443 0.72692335 1.9959394
-1.005399 0.73519713 2.0138412
-1.0254798 0.73850727 2.0178816
-1.0526245 0.74672955 2.0352845
-1.0496806 0.73367941 1.9942206
-1.0649604 0.73356044 1.9885892
-1.0856472 0.73711616 1.9928902
-1.1092049 0.74249333 2.0020068
-1.115765 0.73650104 1.9801545
-1.1366564 0.74000335 1.9839658
-1.1528984 0.74042499 1.9793422
-1.1816753 0.74877816 1.9959363
-1.2009879 0.75099319 1.9958774
-1.2238214 0.75532353 2.0013492
-1.2487965 0.76084757 2.009846
-1.2537289 0.75417525 1.9858059
-1.2727047 0.75601172 1.9843035
-1.2943106 0.75934595 1.9866382
-1.3003249 0.75356323 1.9648761
-1.3203706 0.75595319 1.9645405
-1.3549094 0.76648515 1.9853364
-1.3682083 0.76489502 1.974331
-1.384693 0.76510209 1.9679337
-1.400052 0.76468956 1.9598533
1.4161434 0.74738669 1.9524213
1.4113461 0.75340956 1.9754269
1.3964431 0.75411499 1.9843663
1.3760699 0.75184822 1.98533
1.3578966 0.75074381 1.9892756
1.3397373 0.74962074 1.993071
1.3268362 0.75144821 2.0046971
1.3045045 0.74791384 2.0018129
1.2971526 0.75298691 2.0220757
1.263218 0.74256206 2.0002754
1.2627375 0.75178742 2.0317223
1.2385951 0.74698216 2.0249188
1.2038519 0.73557299 1.9998599
1.2053128 0.74627608 2.0352931
1.1757647 0.73780948 2.0179861
1.1663387 0.74191082 2.035198
1.1385678 0.73429483 2.0199132
1.1147572 0.72905469 2.0110307
1.1006634 0.73011047 2.0195334
1.0811366 0.72754061 2.0178373
1.0753849 0.73430133 2.0421653
1.0432086 0.72295123 2.0156298
1.0226389 0.7194227 2.0108778
1.0119328 0.72283143 2.0255816
0.9898057 0.71806109 2.0171003
0.97607887 0.71933001 2.0256073
0.94284475 0.70603234 1.9926203
0.92967927 0.70757318 2.0016768
0.91957748 0.71153587 2.0175924
0.90504879 0.7121495 2.0238876
0.87945467 0.70392722 2.0047522
0.85642785 0.6975078 1.9906195
0.84541881 0.70082164 2.0043812
0.83895987 0.70809621 2.0295417
0.81904733 0.70407474 2.0220191
0.80417275 0.70431417 2.0267248
0.78208238 0.69812161 2.0126686
0.77234137 0.70292592 2.030472
0.75051385 0.69670242 2.0160923
0.72602177 0.68770111 1.9934541
0.71711749 0.69339758 2.0136549
0.7098304 0.7009331 2.0392265
0.68578213 0.69188535 2.0161035
0.67223305 0.69326371 2.0234783
0.65628433 0.69217384 2.0235181
0.64778495 0.69907236 2.0470393
0.62282449 0.68811238 2.0177789
0.61246997 0.69314849 2.0356791
0.58834279 0.68246001 2.0069497
0.57502675 0.6840862 2.0145986
0.56163436 0.68570447 2.0221624
0.5326516 0.66786212 1.9717615
0.5303064 0.68335575 2.0204647
0.51587164 0.68371022 2.0240512
0.49801463 0.67941648 2.0136845
0.4809927 0.67603701 2.0059474
0.46069002 0.66769171 1.9832499
0.44984344 0.67295539 2.0012064
0.43215248 0.66798973 1.9884387
0.41330951 0.66084033 1.9690115
0.40244281 0.66638917 1.9876391
0.3891663 0.66821027 1.9950129
0.37476239 0.66816097 1.996694
0.35717392 0.66220361 1.9804965
0.34546345 0.66710186 1.9969455
0.32767949 0.66018832 1.9776888
0.31830236 0.67035323 2.0099294
0.29848075 0.65844262 1.9754003
0.2874895 0.66579545 1.9990348
0.27005368 0.65821165 1.9774081
0.25608388 0.65870398 1.9801499
0.24220371 0.65949798 1.9837399
0.22516489 0.65125483 1.9598547
0.21150507 0.65233958 1.9641815
0.1970416 0.65092361 1.9608524
0.18324938 0.65167803 1.9640445
0.16990764 0.65429235 1.9728236
0.15630294 0.6562748 1.9796211
0.14085534 0.65014476 1.9616858
0.12846731 0.65834194 1.9872545
0.11469684 0.66060841 1.9947249
0.10044801 0.66037124 1.9945115
0.08608593 0.65918863 1.9913524
0.072011754 0.66017902 1.9947411
0.057621036 0.65804094 1.9885367
0.043424647 0.65745217 1.986982
0.029350383 0.65903699 1.9919809
0.01512154 0.65686905 1.9854823
0.00098173926 0.65188414 1.9703355
-0.013143077 0.65687048 1.9854959
-0.027132357 0.65342551 1.9749074
-0.04132669 0.65558505 1.9813234
-0.055164821 0.65243274 1.9714949
-0.069230177 0.6527015 1.9720197
-0.082430616 0.64610034 1.9515631
-0.087721802 0.58835632 1.7753848
-0.091433093 0.53591549 1.6153654
-0.10312983 0.53678328 1.6175458
-0.11386338 0.53296769 1.6054271
-0.12545705 0.53350812 1.6065041
-0.13667208 0.53248262 1.6027666
-0.14818752 0.53269571 1.6027395
-0.16008309 0.53414661 1.6064154
-0.17143826 0.53372073 1.6043367
-0.18309256 0.53422111 1.6050138
-0.19487882 0.53502464 1.6065532
-0.20621626 0.5345751 1.6042382
-0.21829148 0.53598458 1.607498
-0.23055698 0.5376963 1.6116116
-0.24191216 0.53722298 1.6090548
-0.25368333 0.53767449 1.6092386
-0.266083 0.53936064 1.6130918
-0.27791098 0.53979534 1.6131054
-0.28875417 0.53835917 1.6074206
-0.30160946 0.54064053 1.6128824
-0.36344853 0.62729627 1.8721614
-0.40325388 0.67107916 2.002008
-0.42253396 0.67885858 2.0234025
-0.43455648 0.67484754 2.009304
-0.44640219 0.67083013 1.995139
-0.46466348 0.67640334 2.0096412
-0.47811195 0.67484492 2.0027065
-0.48968127 0.6708042 1.9882952
-0.50316322 0.66953987 1.982123
-0.52207732 0.67537308 1.9970368
-0.53705901 0.67594111 1.9961647
-0.54878271 0.67248672 1.9832594
-0.56216127 0.67118567 1.9766997
-0.58050853 0.67573357 1.9874126
-0.60175133 0.68334723 2.0070875
-0.61663836 0.6835525 2.0047271
-0.63124073 0.68343979 2.0013516
-0.61269462 0.64825958 1.8945812
-0.63128895 0.65306723 1.9056941
-0.67829919 0.68642169 2.0005267
-0.69415134 0.68749535 2.0003142
-0.70750773 0.68610394 1.9927989
-0.72724867 0.69083428 2.0031078
-0.73862082 0.68758458 1.9900154
-0.76024306 0.69381702 2.0044856
-0.77527803 0.69391352 2.0009801
-0.78404123 0.68849874 1.9814118
-0.7989465 0.68857849 1.9777305
-0.82249683 0.69597042 1.9950939
-0.83643317 0.69510847 1.9884971
-0.84994805 0.69393265 1.9809289
-0.878196 0.70461851 2.0073478
-0.89337236 0.70463169 2.0029826
-0.91049385 0.70615309 2.0028481
-0.92408097 0.7049284 1.9947826
-0.94002825 0.70551449 1.991805
-0.97034419 0.71669477 2.0188088
-0.98194146 0.71391588 2.0060551
-0.98960704 0.70840812 1.9855498
-1.005178 0.70864064 1.9812148
-1.0329138 0.71731412 2.0005183
-1.0512828 0.71932322 2.0009344
-1.0656927 0.71860433 1.9936124
-1.0814137 0.71877748 1.9887074
-1.0957459 0.7180357 1.9811746
-1.1104935 0.71758306 1.9743737
-1.1393273 0.72612 1.9923559
-1.1513153 0.72383529 1.9802853
-1.1704317 0.72603315 1.9804933
-1.1861926 0.72611934 1.9747965
-1.2093505 0.73067224 1.9812235
-1.2436693 0.74176508 2.0053096
-1.260684 0.74238682 2.00069
-1.2526146 0.72840649 1.9564493
-1.2879792 0.73971683 1.9806142
-1.2839748 0.72841632 1.943688
-1.3382442 0.75004935 1.9951643
-1.3237859 0.73310584 1.9431125
-1.3513519 0.73956007 1.9535842
-1.3845973 0.74893618 1.9716103
-1.3828533 0.73938823 1.9393526
1.4439594 0.74567133 1.9948691
1.4151075 0.73916495 1.9844967
1.3979727 0.73869878 1.9903196
1.3808262 0.73821539 1.9960071
1.358309 0.73481506 1.9936293
1.3433219 0.73545545 2.002193
1.3204128 0.7317214 1.9986466
1.3095578 0.73465765 2.0133712
1.2867597 0.73088348 2.0094759
1.2711883 0.73117048 2.0167189
1.2360249 0.72005141 1.9920844
1.2344865 0.72848648 2.0218608
1.2105496 0.72375184 2.0147569
1.2051654 0.73013085 2.0387583
1.1794302 0.72418648 2.0280094
1.1543862 0.71850944 2.0178368
1.1500552 0.72574598 2.0441363
1.1127493 0.71208447 2.0109975
1.0923249 0.7089901 2.0077155
1.0885831 0.71679127 2.0354774
1.0637326 0.71071774 2.0234728
1.0373698 0.70343804 2.0078249
1.0293406 0.70855778 2.0277421
0.99608564 0.69620377 1.9971393
0.97793978 0.69418919 1.996241
0.92941582 0.67020512 1.931416
0.96008927 0.70347774 2.0328941
0.93389028 0.69548613 2.0143163
0.93276262 0.7062102 2.0502956
0.89714348 0.6907413 2.0095472
0.88764894 0.6952002 2.0270655
0.85811967 0.68384939 1.9980124
0.8485564 0.68828863 2.0153258
0.83192152 0.68704909 2.0158241
0.81959134 0.68938446 2.0268183
0.79807365 0.68393427 2.0146513
0.77848834 0.67996258 2.0067394
0.76646173 0.6825667 2.018297
0.74837172 0.67976725 2.0136752
0.73589325 0.68205476 2.0241566
0.71219885 0.6738258 2.0030816
0.70066184 0.67699397 2.0160432
0.68776155 0.67895371 2.0253277
0.6708917 0.67699486 2.0227568
0.6514703 0.67231387 2.0118814
0.63138378 0.66671312 1.9981085
0.61822075 0.66833097 2.0060415
0.60307294 0.66782957 2.0074949
0.58953369 0.66912889 2.0143306
0.57333601 0.66740012 2.0119042
0.55948097 0.66837925 2.0176258
0.54138684 0.66421032 2.0076013
0.52826297 0.66607708 2.0158763
0.50524956 0.65522522 1.9852566
0.49971026 0.6670627 2.0238466
0.48219743 0.66314918 2.0142405
0.46890798 0.66498083 2.0221381
0.44621068 0.65315944 1.9880956
0.43184239 0.65314913 1.9901716
0.41552857 0.65009433 1.9828185
0.40027872 0.64854568 1.98001
0.38834488 0.65245396 1.9939271
0.37292609 0.65058225 1.9899801
0.35775116 0.64900374 1.9868568
0.34151345 0.64528596 1.9770503
0.32990807 0.65037805 1.9943794
0.31659913 0.65242106 2.0022345
0.29868388 0.64471507 1.9798579
0.28419173 0.64399809 1.9790237
0.2702378 0.64448959 1.9818633
0.25601649 0.64436263 1.9827183
0.24236915 0.64574987 1.9882032
0.22704205 0.64255595 1.9794027
0.21164972 0.63874125 1.9685955
0.19698778 0.63674521 1.963361
0.18328719 0.63778907 1.967505
0.17115758 0.6449253 1.9905344
0.15730134 0.6462571 1.9954535
0.14230336 0.64269692 1.9850813
0.12691203 0.63637924 1.966049
0.11434226 0.64439744 1.9915875
0.09999495 0.64324915 1.9885162
0.086185828 0.64575493 1.9967622
0.07185702 0.6445874 1.9934965
0.0577153 0.6449368 1.9948908
0.043454506 0.64374977 1.9914287
0.029036967 0.637972 1.973587
0.015167864 0.64470571 1.9946855
0.00099416578 0.64593291 1.9985498
-0.01315836 0.64348561 1.9908906
-0.027138051 0.63950151 1.9783744
-0.041276418 0.64069998 1.9819493
-0.054938883 0.63578117 1.9663892
-0.069178455 0.63818175 1.9735792
-0.082686305 0.6341607 1.9606901
-0.088433325 0.58036762 1.79268
-0.092028126 0.52779812 1.6284982
-0.10248145 0.52193242 1.6097721
-0.11407474 0.52246922 1.6109322
-0.12546976 0.52208275 1.6091639
-0.13700581 0.52229881 1.6092159
-0.14837573 0.52189702 1.6072919
-0.16000585 0.52240247 1.608134
-0.17155552 0.52259511 1.6079481
-0.18311092 0.52278 1.6076825
-0.19467156 0.52295703 1.6073369
-0.20719782 0.52556366 1.6144701
-0.21780643 0.52328771 1.6064059
-0.23124784 0.52770448 1.6190239
-0.24291739 0.52784914 1.6183448
-0.25458953 0.52798599 1.6175848
-0.26549688 0.52659398 1.6120429
-0.27777961 0.52793217 1.6148827
-0.28978321 0.52865386 1.6157566
-0.30441266 0.53392547 1.6305969
-0.36369455 0.61421573 1.8764111
-0.4031536 0.65647787 2.0046861
-0.41722041 0.65589994 2.0009441
-0.42846072 0.65106565 1.9840624
-0.44649693 0.65653676 1.9987561
-0.4605076 0.65593123 1.9947201
-0.47492382 0.65592277 1.9924442
-0.48865494 0.6549964 1.9872895
-0.50722039 0.66041756 2.0014541
-0.51836473 0.65614325 1.9859329
-0.53422737 0.65791124 1.988778
-0.55595475 0.66661805 2.0126462
-0.56279594 0.65748668 1.9821738
-0.58646178 0.66797602 2.0112326
-0.60378206 0.67090183 2.0172124
-0.61704987 0.66929239 2.0093708
-0.60492766 0.64085984 1.9204434
-0.62095577 0.64286518 1.9235075
-0.65370786 0.66171008 1.977188
-0.68178761 0.67510778 2.0142355
-0.68996185 0.66864407 1.9914614
-0.7051298 0.66908634 1.989369
-0.72999215 0.67852128 2.0140929
-0.73647791 0.67083949 1.9875337
-0.76242608 0.68083918 2.0136759
-0.77613491 0.67973459 2.0065978
-0.79083019 0.67951936 2.002094
-0.8111769 0.68407798 2.0116603
-0.81582659 0.67547423 1.982169
-0.84065986 0.68359047 2.0020475
-0.84304583 0.67348897 1.9680947
-0.86777145 0.68127477 1.9867572
-0.89473826 0.69052607 2.0095391
-0.89385003 0.67832977 1.969367
-0.92469639 0.69022149 1.9995974
-0.94267678 0.69228065 2.0009506
-0.96606469 0.69818252 2.0133607
-0.97759658 0.69546527 2.000623
-0.99830228 0.69925755 2.0066664
-1.0071377 0.69474626 1.9886223
-1.035781 0.70382971 2.0096784
-1.0568402 0.70756799 2.0151792
-1.0708804 0.70656669 2.0069759
-1.0889393 0.70820761 2.0062485
-1.0955667 0.70247251 1.9844154
-1.1205473 0.70850122 1.9959878
-1.1419833 0.71215409 2.0006573
-1.1602069 0.71373212 1.9993285
-1.1721939 0.71148247 1.9871191
-1.1865128 0.71068889 1.9789517
-1.2022613 0.71076101 1.9731389
-1.2440213 0.72601175 2.0095799
-1.2625635 0.72749764 2.0074024
-1.2493801 0.7108947 1.9549804
-1.2681484 0.71265775 1.953514
-1.3021507 0.72283429 1.9751049
-1.3322915 0.7306478 1.9899451
-1.2781445 0.69260114 1.8791167
-1.3614941 0.7290799 1.9720771
-1.3697199 0.72494894 1.9539531
-1.3959776 0.73034704 1.9616241
1.4158913 0.71509987 1.9594349
1.4061222 0.71832228 1.9754578
1.3972898 0.72210348 1.9930195
1.3812293 0.72219443 2.0002751
1.3629903 0.72113496 2.0042295
1.3447657 0.72005761 2.0080326
1.3255069 0.71839345 2.0100796
1.3078464 0.71756524 2.0143783
1.2773583 0.70959038 1.9982985
1.2750876 0.71728718 2.0266075
1.2488949 0.71155185 2.0166128
1.2278726 0.7086516 2.0145552
1.2128263 0.70916939 2.0221858
1.1899904 0.70508558 2.0164814
1.1854728 0.71189189 2.0420997
1.1504277 0.70030147 2.014425
1.1316969 0.69845814 2.0148089
1.1116416 0.69573402 2.0125132
1.0894095 0.69155037 2.0058248
1.0843674 0.69831568 2.031076
1.0710638 0.69988126 2.0410709
1.0550594 0.69970256 2.0458682
1.017542 0.68503511 2.0077884
1.0056398 0.68742687 2.0199175
0.99069548 0.6877811 2.0259526
0.97407341 0.68696356 2.0284243
0.95057654 0.68119293 2.016032
0.9364953 0.6820913 2.023412
