# .PCD v0.7 - Point Cloud Data file format
VERSION 0.7
FIELDS x y z
SIZE 4 4 4
TYPE F F F
COUNT 1 1 1
WIDTH 1437
HEIGHT 1
VIEWPOINT 0 0 0 1 0 0 0
POINTS 1437
DATA ascii
0.60430813 -0.5031842 1.397507
0.59457237 -0.50390726 1.4025158
0.58552092 -0.50524706 1.409216
0.57995617 -0.50970066 1.4246736
0.56792754 -0.50853425 1.4242153
0.54943335 -0.50142258 1.4068248
0.5392831 -0.50179613 1.4105731
0.5291096 -0.50216275 1.4142503
0.52861297 -0.51191539 1.4446464
0.50869554 -0.50287527 1.4213916
0.49379727 -0.49851808 1.411395
0.48211122 -0.49728513 1.4102582
0.47344628 -0.49918276 1.4180452
0.46673647 -0.50327468 1.4321067
0.45358428 -0.50044864 1.4262226
0.43831378 -0.49509558 1.4129685
0.43304935 -0.50105929 1.4323126
0.41558409 -0.49285132 1.4106476
0.4080362 -0.49628559 1.4225959
0.39907816 -0.49814013 1.4299349
0.38880777 -0.49841225 1.4326377
0.37708324 -0.49678388 1.4297608
0.36635292 -0.49640971 1.4304724
0.35812458 -0.4995034 1.4412413
0.34382385 -0.49405834 1.4270494
0.33806759 -0.5009346 1.4487827
0.32147115 -0.49167392 1.42329
0.31126365 -0.49189383 1.4254577
0.30065519 -0.4914735 1.4256982
0.29417703 -0.49801546 1.4463197
0.27947867 -0.49061048 1.4259523
0.26821575 -0.48889959 1.4222373
0.26153836 -0.49574402 1.4436423
0.25200036 -0.49750966 1.4500705
0.24161471 -0.4976823 1.4517599
0.22841674 -0.49181527 1.4355805
0.21968554 -0.49546546 1.4474235
0.20838334 -0.49339196 1.4423207
0.19805776 -0.49353454 1.4437112
0.18530592 -0.4873125 1.4262232
0.17669557 -0.49189064 1.4406326
0.16692294 -0.49360156 1.4465159
0.15657179 -0.49371544 1.4476222
0.14442375 -0.48777661 1.4307345
0.13681206 -0.49742231 1.460006
0.1250744 -0.49242213 1.4457932
0.1169566 -0.50205761 1.4749651
0.10364165 -0.48908159 1.4369613
0.094821617 -0.49679419 1.4603386
0.083999321 -0.49462804 1.4543266
0.073883116 -0.49659497 1.4605457
0.063194931 -0.49473202 1.4553328
0.053094208 -0.49764049 1.4642551
0.042406566 -0.49512535 1.4570022
0.032030128 -0.49578899 1.4591519
0.021472765 -0.49294019 1.4508053
0.011149927 -0.49518225 1.4575515
0.00072614534 -0.49295592 1.4509572
-0.009853241 -0.50346828 1.4822057
-0.020059425 -0.49389809 1.4536682
-0.030451806 -0.4938803 1.4534957
-0.040869173 -0.49417368 1.4541996
-0.051066753 -0.49222952 1.4482007
-0.061698437 -0.49441975 1.4544457
-0.07209599 -0.4943724 1.4539883
-0.082543477 -0.49463627 1.4544063
-0.092821144 -0.49393728 1.4519142
-0.10333405 -0.49450487 1.4531351
-0.11321007 -0.49219966 1.4457772
-0.12346695 -0.49179783 1.4440231
-0.13543685 -0.49775395 1.4610801
-0.14112538 -0.48142692 1.4120035
-0.1515239 -0.48227832 1.4138319
-0.16131602 -0.4812139 1.4099348
-0.17117433 -0.48046088 1.4069142
-0.17811969 -0.47207174 1.3812554
-0.18281198 -0.45891303 1.3414767
-0.19214751 -0.45814589 1.3383155
-0.20116821 -0.45673734 1.3332165
-0.20807548 -0.45087758 1.3149436
-0.21611327 -0.44787186 1.3050647
-0.22546043 -0.4477174 1.3035533
-0.23446484 -0.44692212 1.3001103
-0.236339 -0.43312103 1.2583764
-0.24535824 -0.43295294 1.256727
-0.25027016 -0.4258087 1.2345551
-0.25796595 -0.42373112 1.2272382
-0.26278031 -0.41721752 1.206893
-0.2689679 -0.41323486 1.1939508
-0.27583629 -0.41051486 1.1846815
-0.28455946 -0.41063663 1.1836848
-0.29057622 -0.40696084 1.1715677
-0.29829368 -0.40580919 1.1667863
-0.30739111 -0.40654668 1.1674669
-0.3152886 -0.40570036 1.1634963
-0.32364988 -0.40547961 1.1613044
-0.33225545 -0.40556836 1.1599679
-0.34033048 -0.40502134 1.1567471
-0.34810686 -0.40415433 1.1525627
-0.35750797 -0.40516999 1.1537747
-0.36666128 -0.40586406 1.1540078
-0.37612814 -0.40686563 1.1550754
-0.38503665 -0.40723211 1.1542658
-0.39243791 -0.40602326 1.148891
-0.4031904 -0.4082593 1.1533452
-0.41466016 -0.41111302 1.1594988
-0.4214032 -0.40925977 1.1521506
-0.43069503 -0.40990639 1.1518954
-0.43699044 -0.40773183 1.1435694
-0.45002002 -0.41180336 1.1529423
-0.46077302 -0.41367719 1.1560028
-0.46663788 -0.41117433 1.1466279
-0.4817633 -0.41677389 1.1600883
-0.4985728 -0.42360407 1.1769022
-0.49998918 -0.41734555 1.1568261
-0.51593107 -0.4232184 1.1707797
-0.51591712 -0.41602543 1.1480746
-0.52304614 -0.41473636 1.1418866
-0.53528529 -0.4174751 1.1468823
-0.55368251 -0.42485052 1.1646756
-0.55965352 -0.42260817 1.1556745
-0.59049433 -0.43892205 1.1979526
-0.58650178 -0.42924014 1.1682763
-0.590684 -0.425744 1.1557001
-0.61904591 -0.43951976 1.1905143
-0.62459326 -0.43693024 1.1803002
-0.61886543 -0.42664272 1.1490644
-0.63942343 -0.43451166 1.1673537
-0.64193624 -0.43006915 1.1520581
-0.64844477 -0.42839 1.1442624
-0.65722859 -0.42823943 1.1405715
-0.67075843 -0.43114349 1.1450578
-0.67860025 -0.43036273 1.1395626
-0.68639898 -0.42957562 1.134016
-0.6971187 -0.43061325 1.133303
-0.70336539 -0.42889675 1.1252023
-0.72875023 -0.43874583 1.1477449
-0.736081 -0.43761495 1.1410596
-0.74542296 -0.43769303 1.1375312
-0.75318348 -0.43685189 1.1315415
-0.76406914 -0.43782181 1.1302594
-0.77337164 -0.43787223 1.1265163
-0.78265953 -0.43791333 1.1227024
-0.79520655 -0.43975577 1.1235076
-0.79346824 -0.43374676 1.1039716
0.81374669 -0.44831371 1.1108465
0.80449301 -0.44830596 1.1148992
0.87223178 -0.49170071 1.2287266
0.89566231 -0.51084435 1.281703
0.89216232 -0.5149008 1.296525
0.88584828 -0.51741129 1.3074129
0.87942302 -0.51991719 1.3182796
0.84337652 -0.50475669 1.283668
0.83040261 -0.50319886 1.2838714
0.8275938 -0.50783926 1.3000515
0.82859796 -0.51496828 1.3227212
0.82288992 -0.51805651 1.3349205
0.79652596 -0.50805098 1.312881
0.78983563 -0.51049447 1.3232751
0.78971446 -0.51730722 1.3451439
0.77990144 -0.51787078 1.3505793
0.76214767 -0.5131039 1.3418678
0.74639803 -0.50957131 1.3363037
0.73892498 -0.51166892 1.3456091
0.72599423 -0.50999331 1.344826
0.71532029 -0.50987715 1.3481344
0.70376861 -0.50912267 1.3496742
0.69352102 -0.50930279 1.3536611
0.68875116 -0.51357311 1.3686178
0.67130363 -0.508376 1.3579994
0.6482988 -0.4987388 1.335233
0.63859993 -0.49919233 1.3396788
0.63205928 -0.50216991 1.3509437
0.61676627 -0.49817714 1.3431828
0.60779428 -0.4992412 1.34914
0.59763199 -0.49934742 1.3524319
0.58745641 -0.499446 1.3556499
0.58938599 -0.5100233 1.3876413
0.56778878 -0.50025624 1.3636171
0.56075567 -0.50319701 1.3745303
0.54941732 -0.50231254 1.3748345
0.53947401 -0.50269401 1.3785853
0.52245659 -0.49636951 1.363655
0.51918924 -0.50311691 1.38499
0.50369191 -0.49804625 1.3733855
0.49409017 -0.49871549 1.3777108
0.48786843 -0.50289726 1.391818
0.47478557 -0.50003463 1.3861663
0.46835667 -0.50420815 1.4001889
0.45301962 -0.49876362 1.3871492
0.44273454 -0.49875736 1.3893249
0.43967873 -0.50708842 1.414965
0.42404956 -0.50097108 1.3998065
0.40866068 -0.49483934 1.3845037
0.40386847 -0.5015536 1.4054919
0.39501384 -0.50344288 1.4127927
0.38115913 -0.49888971 1.4017544
0.37203184 -0.50044316 1.407999
0.36050755 -0.4987689 1.4050111
0.3504042 -0.49901998 1.4074491
0.33874702 -0.49700651 1.4033726
0.32780665 -0.49595189 1.4019721
0.3183516 -0.49714899 1.4069556
0.30464008 -0.49155757 1.3924527
0.29734659 -0.49629369 1.4074751
0.28480694 -0.49229899 1.3974181
0.2762149 -0.49508482 1.4067664
0.26385516 -0.49107218 1.3965322
0.25516707 -0.49384546 1.4057554
0.24202585 -0.48787263 1.3897521
0.23374493 -0.49160394 1.4016436
0.21956122 -0.48269641 1.3770428
0.21418256 -0.49321958 1.4084482
0.20059286 -0.48494101 1.385532
0.19447646 -0.49480852 1.4149913
0.18384577 -0.49364674 1.4125347
0.17154813 -0.48761073 1.3959171
0.16390248 -0.4948692 1.4177312
0.15414184 -0.4962815 1.4225798
0.14385033 -0.49606383 1.4226583
0.13347833 -0.49551401 1.4217238
0.12320791 -0.49528152 1.4216597
0.11257485 -0.49341747 1.4168104
0.10248896 -0.49381968 1.4184891
0.092142195 -0.49291506 1.4163239
0.081777416 -0.49167788 1.4131428
0.071936093 -0.49368313 1.4193343
0.061523311 -0.49178115 1.4141227
0.051765557 -0.49539754 1.4249047
0.041040096 -0.48925453 1.4072633
0.031349011 -0.49545741 1.4254731
0.020861002 -0.48897403 1.4067411
0.010869509 -0.4928869 1.418197
0.00071155489 -0.49321619 1.4191822
-0.0094536003 -0.49321309 1.4191524
-0.019670062 -0.49450305 1.4228352
-0.02986072 -0.49448517 1.422666
-0.04015537 -0.49576029 1.426208
-0.050270624 -0.4947525 1.4230634
-0.060462613 -0.49471259 1.4226846
-0.070605502 -0.49434033 1.4212916
-0.080678754 -0.49363577 1.4188855
-0.09078145 -0.49324918 1.4173554
-0.10060077 -0.49155572 1.4119825
-0.11056829 -0.49083006 1.4093741
-0.12058402 -0.49042216 1.4076408
-0.1214949 -0.45591119 1.3069463
-0.117816 -0.41036841 1.1743114
-0.12634663 -0.41060534 1.174417
-0.13467194 -0.41018716 1.1725839
-0.14309117 -0.41008762 1.1716337
-0.15150408 -0.40998203 1.1706257
-0.16066942 -0.41181615 1.175185
-0.16857591 -0.41040149 1.1703101
-0.17516367 -0.40606502 1.1569641
-0.18508552 -0.4095006 1.1660179
-0.19269623 -0.4077462 1.1600538
-0.2015097 -0.40857708 1.1615038
-0.21018776 -0.40907776 1.1619582
-0.21698129 -0.40601352 1.1521175
-0.22615938 -0.40747318 1.1552483
-0.23632404 -0.41054213 1.1629487
-0.24352753 -0.40843254 1.1557418
-0.25382933 -0.41148674 1.1632965
-0.25972384 -0.4074297 1.1504422
-0.26863515 -0.40821096 1.1514008
-0.27669847 -0.40769538 1.1486096
-0.28563857 -0.40846393 1.149442
-0.29715723 -0.41277039 1.1603036
-0.3052685 -0.41223568 1.1573204
-0.31408858 -0.41266114 1.1570262
-0.32342416 -0.41372368 1.1584933
-0.33228186 -0.41413602 1.1580666
-0.3382422 -0.41100708 1.147573
-0.3497611 -0.41462025 1.1561111
-0.3575367 -0.41372955 1.1518688
-0.36839318 -0.41636235 1.1575162
-0.37615713 -0.41545966 1.1531526
-0.38120934 -0.41166875 1.140642
-0.39034718 -0.41235885 1.1406853
-0.40291071 -0.41656139 1.1505089
-0.41405666 -0.41915354 1.1557484
-0.42111105 -0.41758236 1.1493057
-0.43893865 -0.42654318 1.1721561
-0.44238055 -0.42144713 1.1558057
-0.4510729 -0.42145303 1.1536144
-0.45975858 -0.42145255 1.1513599
-0.46772951 -0.42080909 1.1472833
-0.4817892 -0.4255673 1.1580631
-0.48943466 -0.42459092 1.1529629
-0.49815181 -0.42456213 1.1504303
-0.50723875 -0.42484421 1.1487036
-0.51786882 -0.4263871 1.1503748
-0.53324568 -0.43172169 1.1623243
-0.54445058 -0.43355885 1.1646423
-0.5549112 -0.43475357 1.1651455
-0.55311751 -0.42646211 1.1398883
-0.5680424 -0.43111864 1.1496838
-0.58060652 -0.43386763 1.1542286
-0.58470601 -0.43030381 1.1417141
-0.59820861 -0.43366322 1.1477709
-0.61050963 -0.43606547 1.1511735
-0.61218351 -0.43091744 1.1343502
-0.62766773 -0.43549886 1.1434432
-0.63919204 -0.43724224 1.1448921
-0.64612943 -0.43584314 1.1379522
-0.65817308 -0.43787956 1.1400521
-0.6731382 -0.44177821 1.1469738
-0.67811686 -0.43910623 1.1365514
-0.68688464 -0.43892586 1.1326407
-0.69563222 -0.43873745 1.1286656
-0.70685685 -0.44009614 1.1286688
-0.72013986 -0.44268566 1.1317934
-0.73197144 -0.44432944 1.1323861
-0.74643391 -0.4475098 1.1368618
-0.74897766 -0.44355416 1.1229239
-0.76087022 -0.44516364 1.123242
-0.77654457 -0.44892097 1.128962
-0.77884656 -0.44495034 1.1149389
-0.79298455 -0.44775525 1.118093
-0.80059546 -0.44685254 1.1117995
0.79474956 -0.44687179 1.0823283
0.7978192 -0.45374992 1.1032617
0.84810656 -0.48795438 1.1918827
0.91119325 -0.53041363 1.30155
0.89149451 -0.5251196 1.2929237
0.84447092 -0.50340921 1.2431136
0.83796924 -0.50562 1.2528901
0.83550864 -0.51035392 1.2690023
0.83081239 -0.51382321 1.2819482
0.81383353 -0.50968808 1.2756361
0.80948979 -0.51346135 1.2893009
0.79313171 -0.5096131 1.2835462
0.79545605 -0.51782542 1.3085138
0.77237523 -0.50949806 1.291141
0.76102519 -0.50878853 1.2931808
0.74921685 -0.50774896 1.2943058
0.74672699 -0.51308334 1.3118503
0.73255676 -0.51042932 1.3086964
0.72843283 -0.51479942 1.3237222
0.71385759 -0.51180291 1.3195417
0.69894189 -0.50847071 1.3143871
0.69022495 -0.50961584 1.3208728
0.67888141 -0.50882709 1.3222363
0.66713393 -0.50770658 1.3226609
0.65375227 -0.50528812 1.3195875
0.6441443 -0.5057559 1.3240734
0.63693291 -0.5081507 1.3336275
0.62404805 -0.50602353 1.3311244
0.61672002 -0.5084064 1.3405701
0.606206 -0.5081991 1.3430668
0.59644932 -0.50863039 1.3472179
0.5769636 -0.50063491 1.3286958
0.56658393 -0.50039655 1.3308992
0.55584419 -0.49982572 1.3321505
0.54476362 -0.49892166 1.3324422
0.53370988 -0.49800852 1.3326468
0.52405101 -0.49838686 1.3362916
0.514705 -0.49908346 1.3407526
0.5033493 -0.4978202 1.3398325
0.49364969 -0.49817669 1.3432651
0.48329589 -0.4978742 1.3448482
0.4720166 -0.49658507 1.3436761
0.46290705 -0.49757227 1.3486801
0.45018396 -0.49463299 1.3428593
0.44222471 -0.49691331 1.3513165
0.43445417 -0.49951643 1.3606311
0.41795453 -0.49196836 1.3419096
0.4142414 -0.49946997 1.3646573
0.40624896 -0.50205767 1.3738171
0.39349192 -0.49873868 1.3665785
0.38313058 -0.49836156 1.367426
0.37253293 -0.49764848 1.3672861
0.36985299 -0.50776607 1.3972211
0.35489807 -0.50112778 1.3805023
0.34314215 -0.49874961 1.3755678
0.33213487 -0.49734861 1.3732953
0.3235231 -0.49955919 1.3810589
0.31378591 -0.50011832 1.3841646
0.29742157 -0.48980096 1.3567531
0.2878482 -0.49034199 1.3596826
0.2765674 -0.48790941 1.3542184
0.26916593 -0.49239364 1.3681272
0.25776017 -0.48961577 1.3615867
0.24796577 -0.48979917 1.3633188
0.23783962 -0.48931521 1.3631234
0.22680633 -0.48684222 1.3572688
0.21793054 -0.48898596 1.3643821
0.20699699 -0.48649701 1.3583747
0.19683044 -0.48565236 1.3569559
0.19051555 -0.49472106 1.3835177
0.1804539 -0.49452558 1.3838519
0.17062569 -0.49498442 1.3859895
0.16056192 -0.49477449 1.3861859
0.15080659 -0.49555027 1.3891271
0.1404535 -0.4943324 1.3863693
0.13040978 -0.49410036 1.3863567
0.12021215 -0.49319851 1.3843946
0.1101974 -0.49295166 1.3842425
0.099854201 -0.49104071 1.3793157
0.090133019 -0.49210444 1.3827896
0.08009769 -0.49150404 1.3814884
0.070416801 -0.49321643 1.3867136
0.060503382 -0.49359605 1.3881041
0.051015127 -0.49827805 1.4016834
0.040737752 -0.49565941 1.3944535
0.03068899 -0.49502257 1.3928115
0.02056862 -0.49205729 1.3844974
0.010696813 -0.49505293 1.3930945
0.00068807026 -0.48676747 1.3695478
-0.009284813 -0.49439082 1.3912174
-0.019642828 -0.50399595 1.4184765
-0.029191604 -0.49336782 1.3881241
-0.039073676 -0.49234807 1.3850611
-0.048946857 -0.49165264 1.3828741
-0.058910184 -0.49194464 1.3834481
-0.068977043 -0.49289215 1.385838
-0.07865639 -0.49118081 1.3806226
-0.088026322 -0.48813692 1.3715761
-0.098069362 -0.48906285 1.3737638
-0.10873312 -0.49263152 1.3834066
-0.11818239 -0.49056086 1.3769877
-0.12132036 -0.46463907 1.3028567
-0.11661293 -0.41454932 1.160208
-0.12495766 -0.41446099 1.1593814
-0.13350981 -0.41502857 1.1603732
-0.1434402 -0.41956037 1.172547
-0.15079576 -0.41647542 1.1631117
-0.15815143 -0.41371676 1.154569
-0.16872039 -0.4192189 1.1693417
-0.1750374 -0.41413522 1.1541567
-0.18495215 -0.41763932 1.1631863
-0.19179277 -0.41419873 1.1525772
-0.20184341 -0.41768843 1.1614689
-0.20854117 -0.41423815 1.1507655
-0.21786208 -0.41606364 1.1548771
-0.22599712 -0.41557279 1.1524289
-0.23671244 -0.41969207 1.1628845
-0.24277548 -0.41556314 1.1501421
-0.25125852 -0.41571406 1.1493726
-0.26282862 -0.42079768 1.1623665
-0.26801872 -0.41566822 1.1467336
-0.27934468 -0.42007732 1.1577286
-0.28588533 -0.41724259 1.1484466
-0.29555461 -0.41900554 1.1519504
-0.30528939 -0.42076063 1.1553775
-0.31215128 -0.41856837 1.1477798
-0.32470202 -0.42391893 1.1610886
-0.32998335 -0.41974756 1.1479242
-0.34117329 -0.42311287 1.1556069
-0.34951276 -0.42286515 1.1532345
-0.35617432 -0.4206475 1.1453843
-0.36869919 -0.42529657 1.1564291
-0.37444028 -0.42208698 1.1457708
-0.38449669 -0.42377642 1.1485523
-0.39249349 -0.42317173 1.1449838
-0.40386242 -0.42615101 1.1511877
-0.41250116 -0.42618522 1.1492708
-0.42049104 -0.42556134 1.1455138
-0.4314051 -0.42786258 1.1496832
-0.43570921 -0.42364651 1.1360708
-0.44802594 -0.42723367 1.1436255
-0.46151674 -0.43178362 1.1537049
-0.46633768 -0.42820397 1.141722
-0.4749712 -0.42819169 1.1393529
-0.48725751 -0.4314141 1.1456438
-0.49407548 -0.42976665 1.1387745
-0.50650042 -0.43296912 1.1448753
-0.51326895 -0.43130964 1.1378921
-0.52270216 -0.43190742 1.1369052
-0.54207796 -0.44056621 1.1573224
-0.54362756 -0.43469134 1.1389899
-0.55518001 -0.43687451 1.1420333
-0.56098855 -0.43454015 1.1330628
-0.57555372 -0.43895605 1.141873
-0.58856517 -0.44207108 1.1471575
-0.59517729 -0.44035828 1.1396898
-0.6034739 -0.43992385 1.1355432
-0.61397284 -0.44108418 1.1355174
-0.62134123 -0.43999451 1.1295737
-0.63232064 -0.44145656 1.1302211
-0.64380687 -0.44322696 1.1315988
-0.65252858 -0.4430716 1.1279351
-0.65885371 -0.44131523 1.1201077
-0.67473346 -0.44592017 1.1285802
-0.68638319 -0.4476451 1.1295699
-0.68920285 -0.44364125 1.1158782
-0.70084709 -0.4453477 1.1167196
-0.71354979 -0.4476749 1.1190614
-0.71712917 -0.44429171 1.1068952
-0.73916596 -0.45228592 1.1233853
-0.7505101 -0.45362207 1.1229894
-0.74499124 -0.44485667 1.0972596
-0.77116042 -0.45499659 1.1187581
-0.78203714 -0.45598114 1.1172955
-0.79129708 -0.45601106 1.1134076
-0.78897828 -0.44944444 1.0932034
0.79635817 -0.45681858 1.0822754
0.79720181 -0.46255466 1.1000915
0.83000189 -0.48718134 1.1636823
0.86353838 -0.51282418 1.2301171
0.84434897 -0.5073927 1.2212036
0.83801472 -0.5096485 1.2309489
0.82583332 -0.50835991 1.231985
0.81471455 -0.50770169 1.2345021
0.82098335 -0.51799774 1.2640141
0.79553103 -0.50828665 1.2440646
0.78540003 -0.50824142 1.2479374
0.77673668 -0.50915706 1.2541543
0.77485645 -0.51460165 1.2716614
0.75974822 -0.51128918 1.2672309
0.7533173 -0.51380569 1.2773647
0.74207801 -0.51306671 1.2792685
0.73178077 -0.51296741 1.2827282
0.72605777 -0.51611698 1.2943785
0.71296781 -0.51404494 1.2927325
0.6977095 -0.51032692 1.2868046
0.682576 -0.50659233 1.2807304
0.688851 -0.51887214 1.3156341
0.66939157 -0.51184589 1.3009956
0.6603142 -0.51266438 1.3064383
0.63746411 -0.50264841 1.2838336
0.62809616 -0.50311422 1.2882086
0.61587352 -0.50127161 1.2865415
0.60887998 -0.50369442 1.2959038
0.59630454 -0.50150329 1.2932038
0.58688456 -0.50193679 1.2972897
0.57819748 -0.50302285 1.3030388
0.56237477 -0.49783024 1.2922556
0.55223984 -0.49757719 1.2943648
0.54498953 -0.49996135 1.3033757
0.53516138 -0.50002503 1.3062272
0.51975638 -0.49478221 1.2949739
0.51615715 -0.50079244 1.3134751
0.50393945 -0.49851221 1.309945
0.49706447 -0.50153178 1.3204567
0.48361441 -0.49790502 1.3132113
0.47282618 -0.49692485 1.3129545
0.46423793 -0.49826428 1.3188488
0.45437747 -0.49826673 1.321118
0.44659024 -0.50059325 1.3295805
0.43056679 -0.49358365 1.3128878
0.42276767 -0.49589556 1.3212091
0.41348401 -0.49653465 1.3249835
0.40416986 -0.49716729 1.3286954
0.39429551 -0.49712524 1.3305352
0.38545126 -0.49841303 1.3359299
0.37503943 -0.49768826 1.3358201
0.36956155 -0.50364852 1.3538287
0.35548005 -0.49788886 1.3399262
0.34626839 -0.49881601 1.3441594
0.33633769 -0.49873146 1.3455878
0.32706413 -0.49964556 1.3496946
0.31498176 -0.49619201 1.3418108
0.29972687 -0.48735759 1.3191223
0.29580563 -0.49697706 1.3469189
0.28609166 -0.49719125 1.3489137
0.27244401 -0.49034095 1.3314559
0.26230344 -0.48952979 1.3305173
0.25392669 -0.49207431 1.3387613
0.24377695 -0.49124891 1.337688
0.23237321 -0.48772308 1.3291183
0.2227961 -0.48789155 1.3306775
0.21453348 -0.49108431 1.3405408
0.2061424 -0.49427211 1.350356
0.19374016 -0.48768082 1.3330959
0.18337633 -0.48579821 1.3287927
0.17501397 -0.48930305 1.3393523
0.16639712 -0.49246529 1.3489276
0.15668739 -0.49258539 1.3500335
0.14556149 -0.48797387 1.3379697
0.13621363 -0.48909119 1.3417426
0.12664518 -0.48952672 1.3435792
0.11689642 -0.48927984 1.3434751
0.10730386 -0.48970109 1.3451802
0.097693205 -0.49011528 1.3468202
0.088125542 -0.49086025 1.3493341
0.078311376 -0.49024671 1.3480246
0.067905709 -0.48523289 1.3344271
0.058753248 -0.48899746 1.3452023
0.04955285 -0.49376926 1.3587388
0.039754562 -0.49346459 1.3581034
0.029947359 -0.49281466 1.3564602
0.020165585 -0.49215737 1.3547498
0.010416835 -0.49183077 1.3539132
0.0006800667 -0.49082085 1.3511279
-0.009041477 -0.49115574 1.3520404
-0.018750172 -0.49080732 1.3510042
-0.028464258 -0.49078968 1.3508427
-0.038203377 -0.49110281 1.3515556
-0.047558401 -0.48735288 1.3409145
-0.057478216 -0.4896794 1.3471386
-0.067210957 -0.48997068 1.3476521
-0.076529816 -0.48755175 1.3405813
-0.087543212 -0.49526116 1.3616288
-0.0954739 -0.48573419 1.3347076
-0.10499935 -0.4853217 1.3330832
-0.11602186 -0.49131799 1.3492136
-0.11812011 -0.46151796 1.2659032
-0.11652689 -0.42260861 1.1573434
-0.13005163 -0.44006744 1.2051911
-0.13447531 -0.42647156 1.1668582
-0.14536926 -0.43378937 1.1864696
-0.15271942 -0.4303059 1.1761072
-0.16030899 -0.4278293 1.1685019
-0.16912822 -0.42871836 1.1701716
-0.17435046 -0.42084011 1.1475688
-0.18467022 -0.42542353 1.1593683
-0.19165213 -0.42225313 1.1497127
-0.2028116 -0.42816719 1.1650761
-0.20921871 -0.42397624 1.1525347
-0.21822061 -0.42516404 1.1547757
-0.2308504 -0.4330695 1.1754413
-0.2357963 -0.42651013 1.1562868
-0.24779269 -0.43271643 1.17216
-0.25366157 -0.42816514 1.1584634
-0.2704463 -0.44173765 1.194386
-0.27058026 -0.42811507 1.1557872
-0.28416902 -0.43596166 1.1758957
-0.28590262 -0.42569402 1.1464709
-0.29696134 -0.42950144 1.1554401
-0.30792549 -0.43296397 1.1634015
-0.31339261 -0.42871904 1.1503383
-0.32446662 -0.43216586 1.1581492
-0.33180511 -0.43058804 1.1522658
-0.34066203 -0.43101045 1.1517671
-0.34898925 -0.43075824 1.1493977
-0.35813245 -0.43150133 1.1496738
-0.36503166 -0.42956901 1.1426873
-0.37272048 -0.4286328 1.1383545
-0.38451502 -0.43235475 1.1465043
-0.39251259 -0.43173817 1.1429371
-0.40171659 -0.43244666 1.1428804
-0.41188785 -0.43414506 1.1454197
-0.42147431 -0.43517026 1.1461015
-0.43174973 -0.43685147 1.1484766
-0.44107941 -0.43752858 1.1481199
-0.44702089 -0.43488339 1.1388931
-0.45771319 -0.43687263 1.1419253
-0.47094694 -0.44116887 1.150991
-0.47498739 -0.43685344 1.1372435
-0.48690516 -0.43980771 1.1426387
-0.49818265 -0.44209 1.14619
-0.50651199 -0.44172248 1.1427225
-0.5240469 -0.44925925 1.1598914
-0.52310443 -0.44096836 1.1356124
-0.53216028 -0.44123974 1.1336839
-0.54484451 -0.44446212 1.1393734
-0.55845821 -0.44832841 1.146646
-0.56224078 -0.44430476 1.1334231
-0.57639778 -0.44847706 1.1413445
-0.58343351 -0.44706592 1.1348009
-0.59430826 -0.44859481 1.1357738
-0.60303146 -0.44847852 1.1324693
-0.61084861 -0.44770157 1.1274334
-0.61772317 -0.44626585 1.1206849
-0.6291092 -0.44808391 1.1221708
-0.63915974 -0.44891343 1.1210824
-0.65204537 -0.45168418 1.1248366
-0.65931529 -0.45054245 1.1186563
-0.66508752 -0.44842148 1.1099892
-0.67028296 -0.44597247 1.1004875
-0.68671525 -0.45096648 1.1095445
-0.7003212 -0.45400006 1.1136041
-0.71503121 -0.45766342 1.1191323
-0.72322291 -0.45711523 1.1141499
-0.72725099 -0.45398137 1.1027626
-0.74002415 -0.45631662 1.1048068
-0.74178541 -0.45188704 1.0902168
-0.7631048 -0.45933574 1.1046191
-0.76041883 -0.45232967 1.0837281
-0.77870727 -0.45781785 1.0931658
-0.80267209 -0.46647865 1.1101204
0.79183334 -0.46321395 1.0737321
0.78941464 -0.46710286 1.0868682
0.8015576 -0.47979838 1.1208833
0.84991741 -0.51472604 1.2079042
0.84262121 -0.51637733 1.2160971
0.82732993 -0.51310986 1.2124976
0.81370169 -0.51080674 1.2111113
0.79548788 -0.50553262 1.2024816
0.78714746 -0.50647974 1.208756
0.77623272 -0.50577348 1.210987
0.77131814 -0.50900865 1.2227451
0.75887299 -0.50729376 1.2224241
0.74988663 -0.50787646 1.2276509
0.73653001 -0.50547522 1.2255106
0.73180962 -0.50901616 1.237916
0.72412974 -0.51056749 1.2454085
0.71452498 -0.5107857 1.249571
0.70673162 -0.51232326 1.2569617
0.69208944 -0.50886893 1.2518905
0.68915695 -0.51404899 1.2682827
0.67150384 -0.50823975 1.2571765
0.66099364 -0.50774401 1.2592814
0.64920622 -0.50623733 1.2587838
0.64632195 -0.51173365 1.2758863
0.62617922 -0.50352353 1.2583344
0.61697781 -0.50399071 1.2626328
0.60653841 -0.50344539 1.2643121
0.60087794 -0.5069139 1.2761602
0.58647317 -0.50299805 1.2691401
0.57528365 -0.50175405 1.2688615
0.56564641 -0.50184435 1.2719404
0.55711496 -0.50293601 1.2775435
0.54963368 -0.50503165 1.285694
0.53990513 -0.50510103 1.2885847
0.52202576 -0.49740645 1.2713404
0.51381111 -0.49880433 1.2775332
0.50895 -0.50357407 1.2924471
0.49552718 -0.49989346 1.285369
0.48617932 -0.50025874 1.2887518
0.47713295 -0.50095552 1.292953
0.46489301 -0.4982585 1.288231
0.46141857 -0.50504106 1.3082792
0.44646013 -0.49927557 1.2953941
0.43943217 -0.50231963 1.3055749
0.42850631 -0.50094503 1.3040928
0.42217192 -0.50499874 1.31687
0.40762562 -0.49918875 1.3035676
0.39817566 -0.49948889 1.3063377
0.38844389 -0.49944174 1.3081402
0.37922505 -0.50006837 1.3116809
0.36519173 -0.49421275 1.2979501
0.35947332 -0.49959716 1.3140385
0.34613958 -0.49440286 1.3019285
0.34020254 -0.4997786 1.3179339
0.33179706 -0.50173712 1.3247981
0.31519645 -0.49104688 1.2977995
0.30729961 -0.49367249 1.3063375
0.29764795 -0.49355718 1.3074968
0.28320315 -0.48522207 1.286552
0.27969784 -0.49570116 1.3160479
0.27093515 -0.49727744 1.3216165
0.25760767 -0.49028251 1.304078
0.24714692 -0.48841617 1.300272
0.23758873 -0.48825574 1.3010095
0.22867438 -0.48946008 1.3053823
0.22140057 -0.49443245 1.31989
0.21231471 -0.4956255 1.3241574
0.20303951 -0.49646869 1.3274363
0.19292626 -0.49524468 1.3250762
0.18171307 -0.49092072 1.3142682
0.17211077 -0.49071091 1.3145491
0.16262802 -0.49083745 1.3156952
0.1539961 -0.49370745 1.3242394
0.14333983 -0.49003768 1.3149914
0.13385692 -0.49014273 1.3159403
0.12489178 -0.4923048 1.3224337
0.11551874 -0.49308416 1.325127
0.10722316 -0.49901873 1.341797
0.09573593 -0.4898029 1.3172127
0.085938029 -0.48815075 1.3131508
0.076580584 -0.48890108 1.3155813
0.066956773 -0.48792267 1.31326
0.057775807 -0.49038053 1.3202515
0.048566543 -0.49352041 1.3290582
0.038881134 -0.49217606 1.3256041
0.029370625 -0.49289083 1.3277147
0.019776715 -0.49222064 1.3260055
0.010215824 -0.4918876 1.3251693
0.00066598161 -0.49016941 1.3205125
-0.0088605573 -0.49085522 1.3223621
-0.018387638 -0.49084488 1.322269
-0.027933495 -0.49117172 1.3230492
-0.037307572 -0.48908028 1.3171946
-0.046797533 -0.48904833 1.3169069
-0.05707816 -0.49589652 1.3353139
-0.066187665 -0.49206176 1.3245758
-0.075889245 -0.49304074 1.3269023
-0.085508183 -0.49332371 1.3272872
-0.093743473 -0.48637089 1.3079383
-0.10112368 -0.47665972 1.2810545
-0.10390293 -0.44870731 1.2045515
-0.10956968 -0.43658388 1.1710863
-0.11616038 -0.42961821 1.15162
-0.12626666 -0.43571717 1.1676029
-0.13299242 -0.43011725 1.1517817
-0.1424364 -0.43345079 1.1601652
-0.15081105 -0.43333989 1.159161
-0.15892662 -0.43253556 1.1562382
-0.16714157 -0.43206885 1.1541913
-0.17477801 -0.43022281 1.1483741
-0.18555495 -0.43592295 1.1629211
-0.19135629 -0.4299466 1.1458654
-0.20042972 -0.43151435 1.1491545
-0.20906271 -0.43204612 1.1496017
-0.21771297 -0.43257117 1.1499871
-0.22548464 -0.43137643 1.1456994
-0.23487815 -0.43325892 1.1496511
-0.24395588 -0.43444887 1.1516906
-0.25387079 -0.43700039 1.1573358
-0.26223674 -0.43680689 1.1555657
-0.26953197 -0.43489778 1.1491603
-0.27871606 -0.4360598 1.1509384
-0.28591576 -0.43414024 1.1444341
-0.29604709 -0.4366546 1.1497308
-0.30365214 -0.43540654 1.1449414
-0.31267199 -0.43619978 1.1455508
-0.32071352 -0.43562245 1.1424687
-0.32975811 -0.43640214 1.1429497
-0.33724397 -0.43513167 1.1379476
-0.34629872 -0.4358981 1.138303
-0.35676119 -0.43835762 1.1430838
-0.36476254 -0.437749 1.1397053
-0.37389386 -0.43849325 1.1398523
-0.38452771 -0.44092736 1.144394
-0.39373544 -0.44165578 1.1443915
-0.40049434 -0.43966475 1.1372092
-0.4115845 -0.44241256 1.1424021
-0.42084241 -0.44311872 1.1421916
-0.43012038 -0.44381735 1.1419101
-0.43774703 -0.44281811 1.1371578
-0.4514581 -0.44789368 1.1481518
-0.45598882 -0.44384173 1.135384
-0.46812841 -0.44720888 1.1418103
-0.47715214 -0.44753096 1.1402928
-0.48106247 -0.44313136 1.1265584
-0.49112266 -0.44445172 1.1275358
-0.50122362 -0.44576284 1.1284297
-0.50867563 -0.44471353 1.1232196
-0.52037483 -0.44735038 1.1273932
-0.53017968 -0.44829896 1.1271875
-0.54001063 -0.44923857 1.1269021
-0.55027574 -0.4505038 1.1273857
-0.56140763 -0.45242795 1.1294752
-0.5713371 -0.45333877 1.128937
-0.57616448 -0.45023501 1.118233
-0.58823299 -0.45279789 1.1217543
-0.60477602 -0.4586789 1.1335077
-0.61083561 -0.45655376 1.125136
-0.62041736 -0.45708418 1.1233629
-0.62863529 -0.45660916 1.1190385
-0.63589835 -0.45546338 1.1130128
-0.64686114 -0.45696259 1.1134918
-0.65691525 -0.45778799 1.1122441
-0.6612156 -0.45463532 1.1011686
-0.67220569 -0.45610476 1.1014119
-0.67830861 -0.45426306 1.0935054
-0.69779038 -0.46131346 1.1072211
-0.70540529 -0.46043935 1.1015601
-0.70073509 -0.45166859 1.0767729
-0.7199834 -0.45834103 1.0893005
-0.7305845 -0.45941305 1.0882245
-0.73329973 -0.45556015 1.0752959
-0.74971968 -0.46021155 1.0826778
-0.75928354 -0.46059442 1.07979
-0.76394665 -0.45803013 1.0698693
-0.76300752 -0.45220456 1.0522491
0.7706331 -0.45956224 1.0422844
0.79427707 -0.47910222 1.0912712
0.79655635 -0.48605943 1.1113712
0.82660365 -0.51032352 1.1718036
0.81795269 -0.51098931 1.1774951
0.81295455 -0.51398063 1.1885973
0.80470604 -0.51496476 1.1949815
0.79485857 -0.51493734 1.1989474
0.77376664 -0.50753367 1.1854123
0.75442785 -0.50110728 1.1740347
0.75574833 -0.50841421 1.1952132
0.74496818 -0.5076648 1.1972086
0.73419946 -0.50690359 1.199116
0.71959239 -0.50343663 1.1944607
0.72030711 -0.51074022 1.2156675
0.70150119 -0.50421304 1.2034934
0.68198425 -0.49698648 1.189483
0.68284655 -0.50461656 1.2114441
0.67348993 -0.50480503 1.2153168
0.66322321 -0.50430697 1.2174637
0.65384185 -0.50447738 1.2211931
0.64400941 -0.50429958 1.2240187
0.63459975 -0.50445253 1.2276071
0.62348765 -0.50323606 1.2277645
0.61157763 -0.50132751 1.2261424
0.6030007 -0.50213403 1.2311876
0.59599775 -0.50429839 1.2395715
0.58493626 -0.50304329 1.239401
0.57977486 -0.50690484 1.2519585
0.56061286 -0.49844906 1.233644
0.5500766 -0.49750337 1.2340459
0.5418002 -0.49860427 1.2395387
0.53127861 -0.49764135 1.2397881
0.51862437 -0.49460956 1.2347485
0.50925541 -0.4946568 1.2374262
0.49883488 -0.49366507 1.2374185
0.48980749 -0.49404046 1.2408279
0.48678514 -0.50060612 1.2599624
0.47103274 -0.49408108 1.245698
0.46131161 -0.49374536 1.2471493
0.45254347 -0.49443689 1.2511803
0.44590923 -0.49753881 1.261354
0.43521416 -0.49614605 1.2599523
0.42693776 -0.4975099 1.2655874
0.41686293 -0.49679238 1.2658175
0.40595707 -0.49502814 1.2632891
0.39982763 -0.499143 1.2759074
0.3902874 -0.49909648 1.2777275
0.38047862 -0.4986957 1.2785794
0.37093753 -0.49863419 1.2802612
0.35988346 -0.49648225 1.2764549
0.34718829 -0.49188906 1.2662245
0.34062725 -0.4959729 1.2785525
0.33135453 -0.49622861 1.2808602
0.32319599 -0.49821699 1.2876533
0.31408176 -0.49880782 1.2907518
0.30047533 -0.49207869 1.2746162
0.29227003 -0.49404642 1.2812186
0.28338808 -0.49496311 1.2850239
0.27388865 -0.49482736 1.2860191
0.2643905 -0.49468428 1.2869475
0.25453427 -0.49383602 1.2859697
0.24124035 -0.48599708 1.2665024
0.23357379 -0.48932177 1.2764237
0.2246576 -0.49019596 1.2798395
0.21524471 -0.49001527 1.2804235
0.20627639 -0.49087614 1.2837176
0.19432621 -0.48438591 1.2674999
0.18756545 -0.49082896 1.28549
0.17649205 -0.48607033 1.2737497
0.16896868 -0.4911032 1.2879329
0.15954518 -0.49087951 1.2881285
0.15044948 -0.49169925 1.2910504
0.1405165 -0.48970982 1.2864615
0.13178349 -0.49191678 1.2929832
0.1222672 -0.49131399 1.2919887
0.1125305 -0.48965219 1.2881285
0.10307711 -0.48903438 1.2869998
0.093780309 -0.48911041 1.2876737
0.084600464 -0.48988059 1.2901529
0.075228572 -0.48959169 1.2897652
0.065394528 -0.48578802 1.2799603
0.056555804 -0.4893429 1.2897322
0.047106948 -0.48797971 1.2863441
0.037790995 -0.48766175 1.2856987
0.028507233 -0.48768741 1.2859255
0.019249873 -0.48840761 1.2879615
0.0099506434 -0.48841894 1.2880615
0.00065190875 -0.48912477 1.2899706
-0.0086362977 -0.48771814 1.2861974
-0.018064084 -0.49156746 1.2964064
-0.027442301 -0.49190074 1.297187
-0.036806408 -0.49187583 1.296967
-0.046168897 -0.49184379 1.2966832
-0.055608552 -0.492506 1.2982063
-0.064007975 -0.48509347 1.2781518
-0.074348375 -0.49240556 1.2973168
-0.083117314 -0.48883769 1.2874297
-0.086313196 -0.45651245 1.2008854
-0.094917834 -0.45609185 1.1993312
-0.10493811 -0.46197391 1.2145156
-0.10965846 -0.44541851 1.1699346
-0.11644331 -0.43902385 1.152379
-0.12636937 -0.4445357 1.1664543
-0.13246596 -0.43673012 1.1450864
-0.14368212 -0.44572857 1.1683273
-0.15069604 -0.44141415 1.1561655
-0.15867932 -0.440245 1.1523196
-0.16528836 -0.4355717 1.1391484
-0.17464495 -0.43823946 1.145399
-0.1829319 -0.43810225 1.1441739
-0.19182123 -0.43935674 1.1465893
-0.20027745 -0.43955582 1.1461694
-0.20840657 -0.43904984 1.1438458
-0.21685824 -0.43923616 1.1433095
-0.22495578 -0.43871802 1.1408744
-0.23247382 -0.43714732 1.1356288
-0.24261859 -0.44045377 1.1431792
-0.25069895 -0.43991673 1.1405704
-0.2591657 -0.44007057 1.1397364
-0.27017528 -0.44439724 1.1498007
-0.27850559 -0.444188 1.1479175
-0.2868239 -0.44397259 1.1459768
-0.29489866 -0.4434033 1.1430703
-0.30366105 -0.44387075 1.1428303
-0.31414637 -0.44676328 1.1488639
-0.32072279 -0.44409069 1.1403513
-0.33131045 -0.44696704 1.1462357
-0.34041822 -0.44775259 1.14663
-0.34738898 -0.44575784 1.1397696
-0.35593987 -0.44583735 1.1382483
-0.3647714 -0.44625652 1.1375605
-0.37187657 -0.44459265 1.1314522
-0.37980199 -0.44396165 1.1279742
-0.38769829 -0.44332495 1.1244429
-0.39926794 -0.44682616 1.1314948
-0.40718156 -0.4461751 1.1278322
-0.41763502 -0.44827694 1.1311725
-0.42750415 -0.44967988 1.1326649
-0.43641648 -0.45004103 1.1314446
-0.44397441 -0.44901857 1.1266569
-0.45391354 -0.45039743 1.1279305
-0.46213198 -0.45004949 1.1247708
-0.47320276 -0.45244142 1.1284968
-0.48106554 -0.45173541 1.1243367
-0.49112409 -0.45307982 1.1253014
-0.49669087 -0.45030558 1.1158594
-0.51328248 -0.45745111 1.1312684
-0.5211519 -0.45671445 1.1268382
-0.53017491 -0.45699629 1.1249124
-0.53839445 -0.45658767 1.1212189
-0.54781586 -0.45719507 1.1200079
-0.55890822 -0.45915622 1.1220977
-0.56501257 -0.45702231 1.1139982
-0.56932396 -0.45352483 1.1025183
-0.58605278 -0.45987588 1.1152512
-0.59553641 -0.46043825 1.1136625
-0.60369468 -0.4599745 1.1095113
-0.60641515 -0.45544001 1.0953923
-0.6208424 -0.45970166 1.1026833
-0.62337559 -0.45516032 1.0885205
-0.63464326 -0.4570336 1.0898892
-0.64026904 -0.45484817 1.0813997
-0.66598749 -0.46680453 1.1068966
-0.66973656 -0.46324986 1.0949969
-0.67974758 -0.46406269 1.0935409
-0.68728322 -0.46318632 1.088004
-0.69427067 -0.4619675 1.0816225
-0.69865394 -0.45906797 1.0712371
-0.71271461 -0.4625203 1.0758387
-0.71697837 -0.45960817 1.0653768
-0.72692156 -0.46036318 1.0635117
-0.74379635 -0.46543768 1.0716803
-0.75329399 -0.46583065 1.0688279
-0.7622444 -0.46588004 1.065129
-0.75909537 -0.45861825 1.0444903
0.77054924 -0.46826151 1.0398388
0.77548426 -0.47667298 1.062713
0.77849233 -0.48408166 1.0834064
0.79092914 -0.49759641 1.1180855
0.79863751 -0.50842249 1.1467899
0.78909981 -0.508398 1.1507312
0.77798164 -0.50734222 1.1522524
0.76842988 -0.50729454 1.1560384
0.7527439 -0.5031454 1.1502746
0.75583899 -0.51160365 1.1737045
0.73520559 -0.50401181 1.1597891
0.7389546 -0.51315492 1.1848574
0.71414298 -0.50244427 1.1634293
0.70651668 -0.50370014 1.1699611
0.69693351 -0.5035761 1.1732057
0.68921816 -0.50481665 1.1796311
0.68005753 -0.50501841 1.1835588
0.67362124 -0.50727743 1.1923388
0.65445679 -0.49987903 1.1780435
0.64622593 -0.50073856 1.1833718
0.64146876 -0.50435436 1.1952792
0.63050753 -0.50312752 1.1955285
0.62684226 -0.50777352 1.2098851
0.61120915 -0.50271881 1.2007818
0.6098581 -0.50943667 1.2201195
0.59230763 -0.502621 1.206585
0.58062857 -0.50064832 1.204724
0.5737713 -0.50283676 1.2129557
0.5605768 -0.49945179 1.207517
0.54787791 -0.49640128 1.2028121
0.54776198 -0.50484282 1.2262902
0.52761668 -0.49479663 1.2042397
0.52757782 -0.50358421 1.228557
0.50995481 -0.49560159 1.2114043
0.50745142 -0.50228953 1.2305112
0.49567562 -0.49987862 1.2270215
0.48431969 -0.49780661 1.2243032
0.47269639 -0.49537319 1.2206147
0.46410754 -0.49608621 1.2247204
0.45484236 -0.49609056 1.2270095
0.44336134 -0.49362803 1.2230616
0.43567333 -0.49537361 1.22962
0.42821854 -0.49746591 1.2370185
0.41801351 -0.49638531 1.2363852
0.4113225 -0.49952307 1.2463505
0.39855447 -0.49525505 1.2375572
0.39092663 -0.4973233 1.2447373
0.38050953 -0.49585751 1.2429174
0.37251988 -0.4975608 1.2490932
0.3629151 -0.49713889 1.2498251
0.35206327 -0.49494162 1.2459819
0.34520695 -0.49839425 1.2564949
0.33273318 -0.49370331 1.2461746
0.32367522 -0.4939577 1.2484294
0.31618202 -0.49668506 1.2569745
0.30507991 -0.4937368 1.2509328
0.29981923 -0.5003531 1.2693864
0.28545451 -0.49171311 1.2486134
0.27399674 -0.48767221 1.2395811
0.26731297 -0.49214277 1.2524073
0.25692055 -0.48986062 1.2477981
0.24858606 -0.49147859 1.2531987
0.23880289 -0.49024665 1.2511986
0.22956175 -0.49007359 1.2518857
0.22032385 -0.48989332 1.252508
0.21139638 -0.4904176 1.2549093
0.20053805 -0.48630705 1.245253
0.19375508 -0.49215811 1.2613784
0.18234381 -0.48625016 1.2469535
0.17533945 -0.49209061 1.2629833
0.16619007 -0.49222428 1.2641535
0.15635113 -0.4902117 1.2596966
0.14701331 -0.48961741 1.2588806
0.13819773 -0.49079916 1.2626429
0.12839839 -0.48840666 1.2570518
0.11886072 -0.48671964 1.2532498
0.1104307 -0.48966452 1.2614779
0.10107721 -0.48867685 1.2594095
0.091490537 -0.48625359 1.2535487
0.083021767 -0.48989257 1.2634654
0.074146859 -0.49173981 1.2686651
0.064730212 -0.49000865 1.2644769
0.055539463 -0.48969892 1.263956
0.046494942 -0.49081057 1.267105
0.037435513 -0.49227253 1.2711264
0.028198093 -0.49158382 1.2694836
0.019207217 -0.4966042 1.2827199
0.0098500224 -0.49268565 1.2725459
0.00064065238 -0.48983151 1.2651098
-0.008610935 -0.49554488 1.2800267
-0.017611945 -0.48838905 1.2612578
-0.026755907 -0.48872885 1.2620397
-0.035780866 -0.48727515 1.2580905
-0.045112833 -0.48974401 1.2643486
-0.054496627 -0.49184802 1.2696075
-0.06386558 -0.4932301 1.2729346
-0.07370837 -0.49746174 1.2836565
-0.077511743 -0.46454954 1.1973598
-0.087239578 -0.47019756 1.2117074
-0.096083246 -0.47048259 1.2120111
-0.10183326 -0.45684123 1.1759547
-0.10914209 -0.45176208 1.1622055
-0.11588846 -0.44525126 1.144697
-0.12418154 -0.44515708 1.1438746
-0.13374293 -0.44933587 1.1541342
-0.14232996 -0.44994083 1.155044
-0.14842966 -0.44305375 1.1364336
-0.15906042 -0.44970489 1.1529789
-0.16635416 -0.44672725 1.1444608
-0.1749275 -0.44730622 1.1451402
-0.18614553 -0.45428672 1.1623729
-0.19380762 -0.4523586 1.156458
-0.20171341 -0.45113665 1.1523377
-0.20824553 -0.44706374 1.1408077
-0.21686305 -0.44760931 1.1411886
-0.22442453 -0.4460156 1.1360029
-0.23396301 -0.44832435 1.1408484
-0.24223968 -0.44813916 1.1392149
-0.24971183 -0.44652775 1.1338698
-0.25794098 -0.44633046 1.1321274
-0.26679379 -0.44719085 1.1330608
-0.27545619 -0.44768944 1.1330193
-0.28368357 -0.44747254 1.1310995
-0.29490325 -0.45185286 1.1409031
-0.30057663 -0.4477278 1.1288981
-0.3114644 -0.45138302 1.1367369
-0.31947458 -0.4507851 1.1336665
-0.32694402 -0.44947451 1.1287434
-0.33699554 -0.45169044 1.132751
-0.34307399 -0.44860294 1.1232381
-0.35373282 -0.45150912 1.1288956
-0.36251274 -0.4519375 1.1282175
-0.37101352 -0.45200643 1.1265843
-0.38039792 -0.45312476 1.1275541
-0.38528794 -0.44895729 1.1151602
-0.39618748 -0.45182085 1.1204337
-0.40749919 -0.4550252 1.1264937
-0.41571027 -0.45470694 1.1236573
-0.42292145 -0.45332971 1.1181314
-0.43207842 -0.45405138 1.1178125
-0.44431412 -0.45791817 1.1252773
-0.45287308 -0.45792112 1.1230541
-0.45649004 -0.45301956 1.1086173
-0.47032833 -0.45825541 1.1192868
-0.47303131 -0.45264858 1.1030662
-0.48517841 -0.45611709 1.109237
-0.49555394 -0.45782921 1.1110046
-0.50406426 -0.45778918 1.108408
-0.51178521 -0.45704556 1.1040436
-0.52303481 -0.45942593 1.1072767
-0.52913284 -0.45727736 1.0993968
-0.54494286 -0.46345681 1.1117513
-0.54728907 -0.45817155 1.0961729
-0.56205177 -0.46328372 1.1057757
-0.56376398 -0.45764667 1.0893233
-0.57132417 -0.4568544 1.0845608
-0.58323169 -0.45951065 1.088045
-0.5929985 -0.46042767 1.0872853
-0.61224717 -0.46857527 1.1037387
-0.61213821 -0.46188682 1.0847037
-0.61456126 -0.45726845 1.0706298
-0.62758559 -0.46055639 1.0752988
-0.63502008 -0.45970881 1.0701131
-0.65009516 -0.46434128 1.0777968
-0.65268028 -0.46004808 1.0644209
-0.65904081 -0.4584929 1.0574697
-0.66832089 -0.45898286 1.0552685
-0.68263817 -0.4628759 1.0609303
-0.699619 -0.46845499 1.0703988
-0.69772106 -0.46141145 1.0505784
-0.71639717 -0.46797967 1.0621649
-0.71211958 -0.45957601 1.0392491
-0.73201758 -0.46678868 1.0521368
-0.72633314 -0.45771044 1.0277406
-0.74097466 -0.46150312 1.032678
-0.7721892 -0.47541198 1.0604048
0.76934201 -0.47626346 1.0358158
0.77428102 -0.484826 1.0586262
0.78109968 -0.4947781 1.0846214
0.78865325 -0.50543523 1.1123043
0.77561337 -0.50299078 1.1107763
0.77580363 -0.50917071 1.1285417
0.76379138 -0.50739497 1.128422
0.75748986 -0.50941586 1.1368173
0.75110567 -0.51143098 1.1451837
0.72851729 -0.50232393 1.1282123
0.72564012 -0.50674903 1.141968
0.72112435 -0.51012975 1.1533481
0.69945705 -0.50130659 1.1366831
0.7006582 -0.50885683 1.1575904
0.68355381 -0.50313693 1.1478742
0.6731925 -0.50229168 1.1493362
0.66469872 -0.50283575 1.1539707
0.65754491 -0.50442308 1.1609982
0.65258026 -0.50775903 1.1720884
0.64571017 -0.50968754 1.1798732
0.62339729 -0.499304 1.1586832
0.62437731 -0.50754511 1.1812263
0.61865979 -0.51050895 1.1913484
0.60693699 -0.5085324 1.18975
0.58448648 -0.49736542 1.1662446
0.57589966 -0.49782854 1.1702589
0.56688452 -0.49793047 1.1733687
0.56301093 -0.50262576 1.1874242
0.55350035 -0.50236118 1.1895874
0.54475838 -0.50279707 1.1933833
0.53485852 -0.50216097 1.1945529
0.52645952 -0.50293624 1.1990757
0.5092513 -0.49517354 1.1828969
0.50057203 -0.49557269 1.1863836
0.49222425 -0.49632081 1.190675
0.48245513 -0.495637 1.1914396
0.47610843 -0.4985103 1.2008286
0.46564195 -0.49709803 1.1997215
0.45718607 -0.49781871 1.2037773
0.45191437 -0.50210661 1.2165445
0.43828586 -0.49709472 1.2064439
0.43224388 -0.5006572 1.2173645
0.41971424 -0.49669677 1.2097126
0.40909681 -0.4948737 1.2072613
0.40027741 -0.49519232 1.2100482
0.39172438 -0.49586281 1.2136631
0.38258758 -0.49580878 1.2154377
0.37398854 -0.49646589 1.2189331
0.36641723 -0.49855417 1.2259505
0.3538689 -0.49380422 1.2158852
0.34575772 -0.49515918 1.2209839
0.34102026 -0.50154907 1.2386345
0.32889816 -0.49713132 1.2292229
0.32064 -0.49846855 1.234163
0.31165314 -0.49871814 1.2363355
0.30090207 -0.49607441 1.2311925
0.28981766 -0.49269906 1.2241476
0.28234977 -0.49545249 1.232474
0.27298489 -0.49494967 1.2325599
0.26132184 -0.49010208 1.2216314
0.25243717 -0.49030548 1.2233945
0.24390078 -0.4912253 1.2269258
0.23498152 -0.49141508 1.2285689
0.22472043 -0.48870191 1.2228129
0.215674 -0.48851457 1.2234055
0.20693797 -0.48904461 1.2257738
0.19612609 -0.48449454 1.2151968
0.19024029 -0.49225914 1.2358608
0.18179962 -0.49385732 1.2408236
0.1716489 -0.49073404 1.23373
0.16197056 -0.48869035 1.2293314
0.15361442 -0.49063021 1.2350353
0.14358047 -0.48711932 1.226801
0.13487715 -0.48795635 1.2296072
0.12567279 -0.48697087 1.2277197
0.11693816 -0.4877941 1.2304056
0.1096999 -0.49551272 1.2506684
0.098562628 -0.48542315 1.2253844
0.090277009 -0.48876894 1.2343919
0.081142075 -0.48774713 1.2321906
0.073388636 -0.49580526 1.2531767
0.063170359 -0.48713547 1.231319
0.054281078 -0.48754603 1.2326517
0.0457142 -0.49158552 1.2432334
0.036482889 -0.48870945 1.2360663
0.027540948 -0.4890987 1.2372167
0.018777765 -0.49457207 1.2513462
0.0095709916 -0.48767379 1.2337451
0.00062660349 -0.48804155 1.2347115
-0.0082939342 -0.48622012 1.2300277
-0.017237516 -0.48693725 1.2318032
-0.026128847 -0.48619261 1.2297919
-0.035149626 -0.48762262 1.2333072
-0.044748262 -0.49486297 1.2516553
-0.053108886 -0.48827919 1.2345648
-0.062752135 -0.49368623 1.2481267
-0.068309933 -0.46964148 1.1862799
-0.078402825 -0.47866979 1.2090253
-0.086045273 -0.47242573 1.1926605
-0.093457647 -0.4661766 1.1762516
-0.10334254 -0.47227448 1.1913631
-0.10931415 -0.46092862 1.1618663
-0.11579681 -0.45321184 1.1416194
-0.1237851 -0.45202699 1.1380184
-0.13310695 -0.45555493 1.146399
-0.14109063 -0.45435682 1.1426834
-0.14855112 -0.4517014 1.1352186
-0.156794 -0.45157993 1.1341723
-0.1647649 -0.45072663 1.1312242
-0.1738155 -0.45276734 1.1355956
-0.18177171 -0.45190111 1.1325344
-0.19883543 -0.47276521 1.1845927
-0.20298532 -0.4624638 1.1574825
-0.20708859 -0.45288682 1.13221
-0.21652053 -0.45525253 1.1371744
-0.22496302 -0.45543942 1.1365755
-0.23063023 -0.45019546 1.122211
-0.23917267 -0.45073253 1.1224248
-0.25030941 -0.45595947 1.1344216
-0.25835353 -0.45539719 1.1317651
-0.26658487 -0.4551897 1.1299628
-0.27393305 -0.45353258 1.1244763
-0.28301281 -0.45475554 1.1261876
-0.29167056 -0.45524979 1.1260223
-0.29939207 -0.45429593 1.1221856
-0.30902597 -0.45621702 1.1255022
-0.31847394 -0.45776951 1.1278433
-0.32514778 -0.45535722 1.1202428
-0.33462629 -0.4568952 1.1224545
-0.34334576 -0.45734689 1.121911
-0.35262844 -0.45850942 1.1230862
-0.36025214 -0.45751092 1.1188518
-0.36754572 -0.45614827 1.1136805
-0.3777386 -0.45836431 1.1173209
-0.38649601 -0.45877993 1.1164581
-0.39711079 -0.46133557 1.1208189
-0.40309387 -0.45851606 1.1118987
-0.41346139 -0.46069717 1.115232
-0.42291847 -0.46179682 1.1158526
-0.43140775 -0.46181718 1.1137804
-0.43887183 -0.46076047 1.1090355
-0.44802174 -0.46148011 1.1085829
-0.45613313 -0.46112323 1.1054624
-0.46458322 -0.46111551 1.1031485
-0.4726609 -0.46074504 1.0999123
-0.48220176 -0.46178883 1.1000518
-0.48875415 -0.459984 1.0932704
-0.50213522 -0.46455812 1.1018046
-0.5106039 -0.46451068 1.0991557
-0.51906258 -0.46445578 1.096445
-0.52590346 -0.46297842 1.0902932
-0.5330922 -0.46184942 1.0849439
-0.54437256 -0.46424511 1.0879402
-0.55362582 -0.46486485 1.0866539
-0.56203842 -0.46477073 1.0836277
-0.57432729 -0.46783686 1.0880119
-0.57970005 -0.46526194 1.0790442
-0.59696704 -0.47216946 1.0923103
-0.59915334 -0.46712196 1.0774739
-0.6102792 -0.46908811 1.0790219
-0.61637783 -0.46718916 1.0715079
-0.61865669 -0.4624868 1.0574719
-0.63355953 -0.46722117 1.0652829
-0.63229811 -0.46006799 1.0455716
-0.6472944 -0.46477664 1.0531886
-0.65948695 -0.46737584 1.0558614
-0.66379714 -0.46439388 1.0457015
-0.6760428 -0.4669688 1.0481987
-0.68886852 -0.46987504 1.0513678
-0.71155149 -0.47934988 1.0693152
-0.71580416 -0.47632909 1.0588953
-0.72940832 -0.47952902 1.062461
-0.73938048 -0.48029336 1.060479
-0.74774975 -0.48001075 1.0561055
-0.84782284 -0.53791809 1.1811301
-0.75837761 -0.47563267 1.0387943
0.78918225 -0.4975065 1.0604506
0.78349012 -0.49959081 1.0689136
0.77771401 -0.50166941 1.0773546
0.77776682 -0.5076009 1.0942076
0.76218778 -0.50335032 1.0887725
0.75304365 -0.50329816 1.0924705
0.7454465 -0.50429142 1.0984328
0.73625708 -0.50421852 1.1020029
0.73367339 -0.50872415 1.1157074
0.71179897 -0.4997986 1.0994719
0.71358955 -0.50747395 1.1202126
0.71118003 -0.51232272 1.1346714
0.69450307 -0.50688589 1.125991
0.68183267 -0.50426739 1.1235549
0.66733849 -0.500211 1.1177801
0.65718138 -0.49933913 1.1191403
0.66045356 -0.50878841 1.1439615
0.64102703 -0.50077134 1.1289462
0.63492411 -0.50308239 1.1374488
0.62250733 -0.50038517 1.1344256
0.61850423 -0.50447118 1.1469517
0.60959387 -0.5046168 1.1503779
0.60578734 -0.50905567 1.1637031
0.59172702 -0.50488222 1.1570342
0.58277166 -0.50500202 1.160264
0.57461911 -0.50583243 1.1651063
0.56803799 -0.5080952 1.1732614
0.55661643 -0.50603151 1.1712488
0.54564607 -0.50431609 1.1699845
0.53702867 -0.50475419 1.1737275
0.52612156 -0.5030182 1.1722943
0.51823753 -0.50416237 1.177611
0.50153911 -0.49661937 1.1622914
0.4901191 -0.49412405 1.1588442
0.48265859 -0.4956021 1.1647878
0.47409996 -0.49598703 1.1680907
0.46552074 -0.49636471 1.1713336
0.45925933 -0.499277 1.1806049
0.44830218 -0.4970988 1.177639
0.43548557 -0.49272791 1.1693349
0.43195137 -0.49889618 1.1863327
0.42325631 -0.49923918 1.1892805
0.4157525 -0.50103271 1.1956909
0.40669993 -0.50099796 1.1976426
0.3930088 -0.4951179 1.1853712
0.38943067 -0.50200117 1.2040112
0.37979236 -0.50121397 1.2039959
0.36936495 -0.4993217 1.2012359
0.36137462 -0.50071168 1.2064253
0.34483162 -0.49001923 1.1820527
0.33769938 -0.49248937 1.1897714
0.32949677 -0.49348962 1.1938597
0.32649323 -0.50254798 1.2176809
0.30857024 -0.48850355 1.1847553
0.30555066 -0.49792114 1.2094111
0.29694515 -0.49853021 1.2123846
0.28576803 -0.49472532 1.204433
0.27657264 -0.49421674 1.2045518
0.26659507 -0.49223 1.2009706
0.25456622 -0.4861891 1.1873053
