# .PCD v0.7 - Point Cloud Data file format
VERSION 0.7
FIELDS x y z
SIZE 4 4 4
TYPE F F F
COUNT 1 1 1
WIDTH 1440
HEIGHT 1
VIEWPOINT 0 0 0 1 0 0 0
POINTS 1440
DATA ascii
0.81064445 -0.495101 1.7013338
0.7667678 -0.47584814 1.638411
0.7847442 -0.49497864 1.7088205
0.79348212 -0.50882185 1.7610028
0.77278936 -0.50394183 1.7478185
0.75920337 -0.50360787 1.7504307
0.74148864 -0.50047559 1.7431356
0.72539628 -0.49834609 1.739257
0.69595915 -0.48680487 1.7020743
0.68457448 -0.48769757 1.7086163
0.68821102 -0.4995268 1.7538393
0.67747808 -0.50118029 1.7630447
0.66226053 -0.4995158 1.7604084
0.64346993 -0.49503621 1.7476561
0.64505249 -0.50636685 1.7911868
0.62055963 -0.49727392 1.7617981
0.60994411 -0.49915114 1.7715038
0.59800202 -0.50000077 1.7774795
0.58780545 -0.50237995 1.7888914
0.57308596 -0.50091374 1.7864306
0.56015158 -0.50097603 1.7893932
0.53964496 -0.49410805 1.7672859
0.52877945 -0.4959479 1.7765031
0.51434147 -0.49444553 1.7735807
0.50674665 -0.49961299 1.7947434
0.49507219 -0.50092411 1.8019
0.48159182 -0.50042939 1.8024437
0.46572062 -0.497354 1.7935313
0.44999963 -0.49426821 1.7844886
0.43830255 -0.49555075 1.7912811
0.44002894 -0.51254654 1.8553729
0.41748434 -0.50144982 1.816888
0.39716595 -0.4923988 1.7857337
0.38516188 -0.49339652 1.7912418
0.36823037 -0.48793378 1.7730147
0.35439718 -0.4863334 1.7688566
0.3426384 -0.48756674 1.7750318
0.33850896 -0.50016743 1.8229333
0.32733166 -0.50294435 1.8347151
0.31293577 -0.50080121 1.8283367
0.29988557 -0.50071925 1.8294774
0.27971652 -0.48820481 1.784714
0.2674123 -0.48888087 1.7884929
0.2549344 -0.48929113 1.7912332
0.24345794 -0.4917672 1.8015473
0.2295402 -0.4893131 1.7935853
0.21723947 -0.49022055 1.7979869
0.20250888 -0.48541641 1.7811927
0.18934307 -0.48397446 1.7767701
0.17823918 -0.4879725 1.792437
0.16586928 -0.48885116 1.7964962
0.15459007 -0.4933562 1.8139448
0.14195634 -0.49396193 1.8168824
0.13023943 -0.4981949 1.8332212
0.11555008 -0.49073744 1.8061172
0.10423816 -0.49755314 1.8319308
0.09137959 -0.49787012 1.833563
0.07788942 -0.49428347 1.8206353
0.064345092 -0.48887041 1.8008571
0.0522063 -0.4941 1.8205585
0.040085316 -0.50295985 1.8536962
0.026135735 -0.48635215 1.7921295
0.013445138 -0.48402539 1.7835739
0.00088288932 -0.48584831 1.7903825
-0.011980826 -0.49623758 1.828971
-0.024693659 -0.49284932 1.816293
-0.036637172 -0.4816598 1.7745657
-0.050410956 -0.49410424 1.8206074
-0.063100927 -0.49303186 1.8163593
-0.074814402 -0.4859781 1.7898339
-0.088590227 -0.49242347 1.8133938
-0.099811979 -0.48483685 1.7847831
-0.11322696 -0.48841003 1.7975526
-0.12481748 -0.48418617 1.7813216
-0.13655527 -0.48125419 1.7698346
-0.150068 -0.48454475 1.7813709
-0.16148409 -0.48108014 1.7677994
-0.1743131 -0.48202008 1.770499
-0.18638369 -0.4808774 1.765424
-0.20236003 -0.48932248 1.7957826
-0.2131867 -0.48505315 1.7790124
-0.22801174 -0.48985004 1.7957205
-0.23760566 -0.48349541 1.7711419
-0.24606365 -0.47558308 1.7407804
-0.26269245 -0.48346454 1.7686807
-0.27397585 -0.48123789 1.7592065
-0.29006973 -0.48728675 1.7801777
-0.29795322 -0.47961369 1.7505304
-0.31079286 -0.48021418 1.7513063
-0.31826434 -0.4727937 1.7225341
-0.33474353 -0.4788087 1.743093
-0.34646991 -0.47783819 1.7379196
-0.35542664 -0.4732469 1.7194194
-0.36694995 -0.47226566 1.7141122
-0.37966037 -0.47282627 1.7143925
-0.38469976 -0.4640975 1.6806599
-0.41352141 -0.48371828 1.7504271
-0.41679293 -0.473176 1.709986
-0.42885879 -0.47293556 1.7070926
-0.44954664 -0.48195201 1.7378141
-0.45860523 -0.47835016 1.7225475
-0.47228298 -0.47962931 1.7249622
-0.4849802 -0.47987247 1.7235482
-0.49635199 -0.47882482 1.7173971
-0.51720601 -0.48675233 1.7436279
-0.51668108 -0.47466144 1.6974742
-0.52953267 -0.47513616 1.6966622
-0.54152411 -0.47483513 1.6929908
-0.54752183 -0.46940878 1.6708477
-0.55842286 -0.4683311 1.6642996
-0.57984966 -0.47593874 1.6888009
-0.5921151 -0.47586632 1.6856937
-0.60047752 -0.47272411 1.6715684
-0.60834312 -0.46932456 1.6565011
-0.62479168 -0.47255006 1.6649714
-0.6534096 -0.48467818 1.704935
-0.64730233 -0.47107658 1.653518
-0.66436285 -0.47452724 1.662516
-0.68158484 -0.47796547 1.6713579
-0.68790758 -0.47377428 1.6532152
-0.70113623 -0.47440302 1.6520081
-0.70942962 -0.47172835 1.6391401
-0.7222296 -0.4720903 1.6368746
-0.73070556 -0.46966088 1.6247902
-0.75464761 -0.47708887 1.6470267
-0.77203852 -0.48020211 1.65408
-0.76730502 -0.46967405 1.613701
-0.79426718 -0.47857296 1.640653
-0.8042413 -0.47711954 1.6316547
-0.80207032 -0.46861434 1.598331
-0.81388938 -0.46841505 1.5936182
-0.84030348 -0.47649762 1.6172203
-0.86170596 -0.48154521 1.6302421
-0.86058307 -0.47404054 1.6003238
-0.87153435 -0.47330466 1.593485
-0.88290226 -0.47281235 1.5874201
-0.90274751 -0.47681105 1.5964814
-0.90695751 -0.47255507 1.5775748
-0.92986542 -0.47802493 1.5913765
-0.93779588 -0.47575259 1.5790583
-0.94808596 -0.47472078 1.5708652
-0.95931494 -0.47417948 1.5642624
-0.97660369 -0.47660932 1.5674734
-0.95385832 -0.459685 1.5064934
-1.0036623 -0.47770998 1.5611457
-1.0185156 -0.4788627 1.5598497
-1.0365938 -0.48148546 1.563285
-1.0644494 -0.48853311 1.5810593
-1.0486013 -0.47559309 1.533518
-1.0683674 -0.47891894 1.538995
-1.0649676 -0.47190326 1.5108865
1.1411502 -0.5120728 1.589836
1.1430188 -0.51880211 1.6167254
1.1011525 -0.50560641 1.5807956
1.1082546 -0.51484919 1.6155952
1.1089977 -0.52132261 1.6417264
1.0780162 -0.51285899 1.6202902
1.0547696 -0.50791389 1.6098671
1.0437064 -0.50878596 1.6179492
1.0289779 -0.50787061 1.620227
1.0163082 -0.50796127 1.6256692
0.99153572 -0.50192761 1.6111995
1.0038333 -0.51474619 1.6578243
0.95850122 -0.49796194 1.6081175
0.94695175 -0.49851516 1.6147119
0.9358393 -0.49931636 1.6220641
0.92325181 -0.49934185 1.6268133
0.93262988 -0.51141292 1.6712221
0.92018807 -0.51169032 1.6767807
0.89860398 -0.50681931 1.6652037
0.87903255 -0.50295877 1.656832
0.86761266 -0.50371742 1.6637226
0.88589126 -0.52199817 1.729117
0.83340764 -0.49850568 1.6547939
0.8288027 -0.50336987 1.6752524
0.81473291 -0.50254792 1.6765785
0.80564487 -0.50482142 1.6882702
0.77935195 -0.4962137 1.6631227
0.77508909 -0.50158048 1.6851525
0.7721346 -0.50798661 1.7107289
0.75760561 -0.50686592 1.7107011
0.72097057 -0.49066219 1.6591138
0.7234174 -0.50095415 1.6978391
0.72387952 -0.51021433 1.7331079
0.69738191 -0.5004636 1.7031561
0.68418849 -0.50007629 1.7052201
0.6706534 -0.49942005 1.7062849
0.66092527 -0.50162792 1.7171669
0.65378159 -0.50592226 1.7352308
0.63780493 -0.50341618 1.7297078
0.61804217 -0.49775887 1.7131437
0.60714793 -0.49915713 1.7209897
0.59180671 -0.49688128 1.7159836
0.57901448 -0.4966931 1.7181726
0.56592405 -0.49623513 1.7193511
0.56543958 -0.50706089 1.7599671
0.536924 -0.49266857 1.7122039
0.52758241 -0.49560389 1.7250766
0.51562798 -0.49616802 1.7295758
0.50443935 -0.49751544 1.7367755
0.48432383 -0.48990214 1.7123228
0.48412621 -0.5025655 1.7593391
0.47092751 -0.50205165 1.7598145
0.45076483 -0.49387926 1.7331073
0.43920004 -0.49492976 1.738958
0.42325121 -0.49095649 1.7269264
0.42385581 -0.50652498 1.7842299
0.39386055 -0.48535606 1.7109253
0.38321307 -0.48743421 1.7201705
0.37608042 -0.49427 1.7463276
0.36821169 -0.5005753 1.7705803
0.35155803 -0.49496165 1.7522484
0.33826545 -0.49384001 1.7498747
0.32659775 -0.49509564 1.7559379
0.31368527 -0.49448907 1.7552799
0.30079871 -0.49387476 1.7545297
0.28561553 -0.48927283 1.7394137
0.26725021 -0.47855589 1.7022642
0.25097686 -0.47074541 1.6754395
0.24871548 -0.48974764 1.7448909
0.23780268 -0.49281392 1.7570586
0.22503109 -0.4921543 1.7557716
0.20907481 -0.48404431 1.7275946
0.20087607 -0.49400264 1.7644241
0.18669626 -0.48959759 1.7494566
0.17728174 -0.49795127 1.7804283
0.16233982 -0.49086991 1.7556781
0.15027262 -0.49202764 1.7605866
0.13956134 -0.49823529 1.7836744
0.12541443 -0.49219254 1.7624692
0.11609272 -0.50584173 1.8123436
0.10096851 -0.49445796 1.7717111
0.088895828 -0.49691138 1.7810222
0.076288857 -0.49669454 1.7806232
0.063828558 -0.49753553 1.783991
0.051270094 -0.49783647 1.7853473
0.038757883 -0.49892896 1.7895089
0.025576057 -0.48829284 1.7511801
0.013473226 -0.49762833 1.7850467
0.00085594179 -0.4832471 1.7330471
-0.011133677 -0.47312087 1.696385
-0.024015523 -0.49175799 1.7637327
-0.036457453 -0.4917399 1.7635262
-0.048579849 -0.48851779 1.7516727
-0.061169621 -0.49034941 1.758042
-0.073731035 -0.49137437 1.7614343
-0.085222237 -0.48600036 1.7416332
-0.098363712 -0.49020597 1.7564079
-0.11129499 -0.49253938 1.7643521
-0.12280394 -0.48874226 1.7500874
-0.13389818 -0.48414043 1.7328677
-0.14740874 -0.48831457 1.747281
-0.15903847 -0.48609427 1.7385521
-0.17196 -0.48785776 1.7441397
-0.18627387 -0.49307045 1.7620981
-0.19838257 -0.49215814 1.7579093
-0.21408617 -0.49974507 1.7842727
-0.22389895 -0.49350166 1.7607683
-0.22753996 -0.4750331 1.6932583
-0.242035 -0.47994092 1.7098027
-0.25494507 -0.48138687 1.7138305
-0.26659828 -0.48043603 1.7091888
-0.28004706 -0.48266283 1.7158918
-0.29296088 -0.48381999 1.7186899
-0.31546241 -0.50008321 1.7755204
-0.31547046 -0.48080954 1.705035
-0.32768828 -0.48088521 1.7037845
-0.33803317 -0.47830534 1.692989
-0.3488254 -0.47651502 1.6849687
-0.3671383 -0.48477462 1.7127281
-0.37944081 -0.48482057 1.7111175
-0.38746798 -0.47957197 1.6906114
-0.39654905 -0.47590697 1.6757127
-0.4154191 -0.48385978 1.7020196
-0.42091259 -0.47622287 1.6729307
-0.43345663 -0.47676608 1.6728116
-0.44626769 -0.47756556 1.6735339
-0.457847 -0.47703961 1.6695064
-0.46783677 -0.47492698 1.6598259
-0.47239545 -0.46754485 1.6315427
-0.4975642 -0.48042351 1.6745405
-0.51248091 -0.48302519 1.6812493
-0.52123851 -0.47983563 1.667557
-0.53216678 -0.47874409 1.6611831
-0.5445255 -0.47895938 1.6593282
-0.55109543 -0.47418439 1.6399872
-0.56364787 -0.47465086 1.6389059
-0.5758974 -0.47484794 1.63682
-0.58685172 -0.47399101 1.6310077
-0.59742534 -0.47286695 1.6242169
-0.61669219 -0.47853273 1.6408783
-0.63245088 -0.48131052 1.6474274
-0.64029652 -0.47807509 1.6331413
-0.65687138 -0.4813565 1.6412628
-0.67287111 -0.48410454 1.6474441
-0.68383545 -0.48319638 1.6409895
-0.69699389 -0.48384321 1.6398025
-0.7067439 -0.48214251 1.6305273
-0.70672023 -0.47394505 1.5990807
-0.72596562 -0.47872782 1.6118118
-0.72584409 -0.47079197 1.5812718
-0.75374401 -0.48099402 1.6121637
-0.74626863 -0.46865615 1.5667396
-0.75241339 -0.46512395 1.5511041
-0.76474363 -0.4654654 1.5484774
-0.78697968 -0.47173417 1.5656483
-0.80120391 -0.47308493 1.5662094
-0.81149411 -0.47210726 1.5589192
-0.78268039 -0.44873822 1.4771082
-0.83780777 -0.47347575 1.5552249
-0.8544479 -0.47607186 1.5595889
-0.86092335 -0.47301108 1.545179
-0.8738609 -0.47353601 1.5425586
-0.88249773 -0.4717477 1.5322759
-0.92400092 -0.48734167 1.578826
-0.93087924 -0.48450339 1.564894
-0.93115306 -0.47834611 1.540159
-0.94469261 -0.47907415 1.5378044
-0.95875603 -0.48004603 1.53616
-0.98312938 -0.4860912 1.5507789
-0.97291988 -0.47509935 1.5104924
-0.98374707 -0.47452313 1.503715
-1.0173846 -0.48483098 1.5316175
-0.99774021 -0.46980447 1.4786706
-1.0289806 -0.47880974 1.5021523
-1.0254893 -0.47163191 1.474263
-1.0532514 -0.47882771 1.4917117
1.0765665 -0.49531591 1.4965217
1.1184682 -0.52050447 1.579078
1.0735778 -0.50541848 1.5383078
1.0581305 -0.50400198 1.5393188
1.0486389 -0.50542223 1.5490183
1.0273585 -0.50112629 1.5409316
1.0583493 -0.52253336 1.6127819
1.0337154 -0.51666635 1.5997423
1.0088077 -0.51051444 1.5856254
0.97804928 -0.50120848 1.5613985
0.96227705 -0.4994424 1.5607183
0.96446353 -0.50707227 1.5896817
0.95548058 -0.50895333 1.6004738
0.94591004 -0.51056713 1.6103847
0.93481112 -0.51138842 1.6177287
0.92129123 -0.51088977 1.6207937
0.88954753 -0.50013131 1.5908325
0.87766016 -0.50039095 1.5960978
0.86711228 -0.50143272 1.6038274
0.89200222 -0.52329421 1.6789199
0.8298707 -0.49399677 1.5882413
0.8228541 -0.49712312 1.6025318
0.81783527 -0.50156927 1.6211153
0.75182277 -0.46817049 1.5159196
0.78787333 -0.49827731 1.6183493
0.77794051 -0.49979624 1.6272311
0.77320993 -0.50476015 1.6474191
0.75422424 -0.50042844 1.6369237
0.74173528 -0.5003348 1.6403228
0.73117894 -0.50156367 1.648041
0.71177602 -0.49666202 1.6353352
0.69672203 -0.49467626 1.632207
0.68802631 -0.49721467 1.6440859
0.67666095 -0.49788091 1.6496735
0.66489762 -0.49827355 1.6542884
0.65345639 -0.49892691 1.6597189
0.64059919 -0.49850351 1.6614708
0.63112789 -0.50074995 1.6721504
0.62385881 -0.50486839 1.6891128
0.61086392 -0.50442648 1.6906363
0.58769387 -0.49538916 1.6629685
0.57773709 -0.49734238 1.6724311
0.55484641 -0.48800465 1.643471
0.55632269 -0.50015962 1.6875224
0.5472585 -0.50317478 1.7004738
0.53489381 -0.50322491 1.7032666
0.51328826 -0.49437702 1.6755614
0.50139153 -0.49467698 1.6790397
0.48733944 -0.4928124 1.6750336
0.48404005 -0.50200421 1.7089251
0.47064888 -0.50093758 1.7075558
0.46150488 -0.5044558 1.7219042
0.44231755 -0.49688685 1.6979891
0.42910925 -0.49579433 1.6963075
0.41435501 -0.4927991 1.6879789
0.40482286 -0.49602118 1.7010804
0.39598611 -0.50032294 1.7178862
0.37405062 -0.48781887 1.6763799
0.35674274 -0.48071885 1.6534837
0.35028434 -0.48825324 1.681335
0.34082186 -0.49198788 1.6959614
0.32845181 -0.49164635 1.6963605
0.31731701 -0.49319848 1.7032974
0.30509338 -0.49311459 1.7044781
0.29254666 -0.49247989 1.7036766
0.27925292 -0.49047801 1.6980367
0.26679397 -0.48982745 1.6970516
0.25365585 -0.48780897 1.6912194
0.24276991 -0.49013638 1.7005341
0.23612241 -0.50171369 1.7422059
0.22040273 -0.49422899 1.7170506
0.21147333 -0.50198591 1.7452639
0.19805385 -0.49938652 1.7371057
0.18658371 -0.50168359 1.7460712
0.17348364 -0.49961314 1.7396438
0.16514365 -0.51198328 1.783901
0.14742021 -0.49490198 1.7245897
0.13500652 -0.49417022 1.7226774
0.1228982 -0.49452189 1.7245175
0.11070982 -0.49459338 1.7253152
0.098570757 -0.49493027 1.7269901
0.086413786 -0.49525979 1.7285825
0.074157692 -0.49503624 1.7281699
0.062082414 -0.49616963 1.7324802
0.049347341 -0.49129105 1.7155528
0.036873132 -0.48667741 1.6994978
0.024849361 -0.48642343 1.6987468
0.012830719 -0.48588899 1.6969513
0.00085636537 -0.49572024 1.7316308
-0.011383792 -0.49599004 1.7325569
-0.023753921 -0.49870896 1.7420568
-0.035251081 -0.48749939 1.7024177
-0.04812682 -0.49620816 1.7329092
-0.060568005 -0.49781242 1.7383074
-0.072927512 -0.49831733 1.7397746
-0.084050551 -0.49144694 1.7152114
-0.095901251 -0.49002749 1.7097931
-0.10798097 -0.48996502 1.709097
-0.11758247 -0.4798027 1.6728073
-0.13322867 -0.49390894 1.7218463
-0.14515202 -0.49300572 1.7180185
-0.1544186 -0.48391658 1.6853658
-0.16707724 -0.48599923 1.6919309
-0.17923321 -0.48643863 1.6926625
-0.19108661 -0.48605326 1.6904411
-0.20394233 -0.48811233 1.6967385
-0.22496933 -0.50840801 1.7669017
-0.22740328 -0.48676068 1.6899726
-0.23840934 -0.48471382 1.6817076
-0.24959244 -0.4832052 1.6752781
-0.25804809 -0.47679463 1.6516595
-0.26987839 -0.47690675 1.6508056
-0.28636515 -0.48489407 1.6773872
-0.29788899 -0.48417407 1.6734935
-0.30572322 -0.4777441 1.6496451
-0.32027578 -0.48190024 1.6626407
-0.33128512 -0.48061842 1.6566337
-0.33990294 -0.47607556 1.639243
-0.34549028 -0.4677335 1.608634
-0.3690789 -0.48351359 1.661696
-0.3821156 -0.48491454 1.6647624
-0.39147374 -0.48170406 1.6517984
-0.39976376 -0.47740719 1.6350445
-0.40667358 -0.4717553 1.6135871
-0.41905731 -0.47259116 1.6144935
-0.43664703 -0.47909388 1.6348538
-0.44797176 -0.47856086 1.6308942
-0.45744899 -0.47613227 1.6203672
-0.47956228 -0.48664823 1.6542137
-0.48855883 -0.48366484 1.64165
-0.48736733 -0.47097832 1.5958593
-0.5112347 -0.48253503 1.6329515
-0.52222908 -0.48169172 1.6275698
-0.53615731 -0.48353198 1.6312743
-0.54011285 -0.47649407 1.6047113
-0.53439242 -0.46140161 1.5508239
-0.56921387 -0.48121309 1.6153294
-0.58100581 -0.48114356 1.6122882
-0.58783233 -0.47704712 1.5955871
-0.60455364 -0.48098385 1.6059529
-0.61562246 -0.48035857 1.6008579
-0.61337894 -0.46956569 1.5615623
-0.63799888 -0.47935674 1.591339
-0.64931816 -0.47897997 1.5869108
-0.66060984 -0.4785966 1.5824034
-0.67037529 -0.47714043 1.5742645
-0.68958151 -0.48233795 1.5882047
-0.69121808 -0.47527838 1.5613449
-0.71335542 -0.48231533 1.5811876
-0.720631 -0.47923788 1.5674574
-0.71679878 -0.46899217 1.5300883
-0.73760009 -0.4749333 1.5460304
-0.73860192 -0.46813932 1.5200485
-0.78169036 -0.48781905 1.5807332
-0.76328915 -0.46911076 1.5157436
-0.78546596 -0.47552785 1.5327978
-0.79819137 -0.4761183 1.5307622
-0.8104822 -0.47643605 1.5277709
-0.81640977 -0.47305763 1.5127715
-0.83322263 -0.47599295 1.5181096
-0.83755696 -0.47181711 1.5004866
-0.84924746 -0.47184291 1.4963381
-0.86475235 -0.47395867 1.4988045
-0.88518262 -0.47868142 1.5094754
-0.90286767 -0.4818148 1.5149481
-0.91571409 -0.48231807 1.5119708
-0.95668906 -0.49743405 1.5550553
-0.93532544 -0.48016447 1.4958543
-0.94657338 -0.47985923 1.4901558
-0.93284374 -0.46705583 1.4453143
-0.97054785 -0.48000234 1.4809434
-0.98224491 -0.47992957 1.4757954
-0.9923076 -0.47906953 1.4681504
-1.0033972 -0.47871953 1.4620378
-1.0171918 -0.47965327 1.4598215
-1.0426396 -0.48599738 1.4741076
1.079813 -0.50907046 1.4985467
1.0479097 -0.49970385 1.4760022
1.0690687 -0.51571661 1.5292138
1.0498712 -0.51240915 1.5246311
1.03993 -0.51359451 1.5334678
1.0134333 -0.50653368 1.517314
0.98511773 -0.49838048 1.4976395
0.97898376 -0.50138646 1.5117301
0.96601272 -0.50092226 1.5152144
0.94795758 -0.49777657 1.5104082
0.93806541 -0.49889165 1.5185804
0.93059087 -0.50133818 1.5308179
0.92495531 -0.50485265 1.5463417
0.91138721 -0.50407344 1.548545
0.88585943 -0.49656925 1.5297449
0.88714474 -0.50409544 1.5576502
0.88340837 -0.5089373 1.5772247
0.89004755 -0.51997715 1.6162676
0.85794634 -0.50837636 1.5841956
0.83982319 -0.50484228 1.5773118
0.83424973 -0.50885922 1.5941895
0.82061642 -0.50800645 1.595625
0.81260949 -0.51066363 1.6081407
0.77601129 -0.49515888 1.5627484
0.78866136 -0.51108503 1.6174691
0.75149441 -0.49472085 1.5689584
0.74796826 -0.50033253 1.5906798
0.73697323 -0.50105006 1.5966743
0.72554034 -0.5014888 1.6017159
0.72919518 -0.51254749 1.6410208
0.69037622 -0.49361837 1.5832937
0.68017739 -0.4948478 1.5906677
0.66659194 -0.49361321 1.5899817
0.65305316 -0.49236915 1.5891854
0.65025163 -0.4993239 1.6150825
0.64046961 -0.50107968 1.6239955
0.62475508 -0.49817231 1.6175817
0.6088289 -0.49497899 1.6101301
0.59403497 -0.49259698 1.6052468
0.60855377 -0.51492047 1.6816987
0.57589042 -0.49741974 1.6268617
0.55494624 -0.48951274 1.6034924
0.54840899 -0.4942466 1.6218487
0.55599117 -0.51219779 1.6840491
0.52909094 -0.49847639 1.6411219
0.51798511 -0.49934387 1.6465471
0.51242244 -0.5057233 1.6702917
0.49344546 -0.49885207 1.6498048
0.47585097 -0.49307036 1.632833
0.47126591 -0.50081801 1.6610348
0.45996997 -0.50165361 1.6660775
0.45134586 -0.50552684 1.6812611
0.43579823 -0.50164515 1.6703569
0.42721286 -0.50578493 1.6863481
0.41387758 -0.50437915 1.6836311
0.39640722 -0.49769664 1.6630471
0.38653314 -0.50043207 1.6741489
0.37237024 -0.49761221 1.6664356
0.36155355 -0.49922526 1.6736403
0.34618193 -0.49444354 1.6591398
0.33460265 -0.4949306 1.6624097
0.31320781 -0.48039848 1.6146622
0.31066242 -0.4947719 1.6649363
0.29885945 -0.49495989 1.6670203
0.2870433 -0.49514079 1.6690234
0.27598807 -0.49670672 1.675685
0.26070878 -0.49046797 1.6557052
0.25053129 -0.49369055 1.6678964
0.23682825 -0.48994061 1.6562562
0.22675851 -0.4937081 1.6702079
0.21856819 -0.50221092 1.700296
0.20308672 -0.4939754 1.6731452
0.1896172 -0.48991323 1.6601794
0.1795812 -0.49477181 1.6776685
0.1637288 -0.48315701 1.6387199
0.15511109 -0.49274766 1.6723101
0.14221521 -0.48921093 1.6608911
0.13090216 -0.49097174 1.6675662
0.12146726 -0.5008263 1.7019432
0.10801712 -0.49447316 1.680692
0.096120283 -0.49453709 1.6813892
0.084409416 -0.49571136 1.6858411
0.072395787 -0.49520156 1.6844583
0.060439918 -0.49496368 1.6839523
0.048385192 -0.49360034 1.6795256
0.036457568 -0.49306798 1.6778958
0.024792129 -0.49728006 1.6925046
0.012829961 -0.49785092 1.6945534
0.00085112121 -0.50484359 1.7186035
-0.011120015 -0.4964543 1.6897643
-0.023440329 -0.50427037 1.7165289
-0.034637451 -0.49083492 1.6702502
-0.04658898 -0.49220705 1.6747724
-0.058572497 -0.49329197 1.6782517
-0.070846699 -0.49604627 1.6874048
-0.082972385 -0.49711582 1.6907161
-0.094294295 -0.49370721 1.6786042
-0.10563085 -0.49113011 1.669295
-0.11777695 -0.492457 1.6733226
-0.12976432 -0.49293816 1.6743922
-0.14137155 -0.49201557 1.6705948
-0.15067165 -0.48382723 1.6418562
-0.16566306 -0.4937782 1.6751915
-0.17631292 -0.49032226 1.6625589
-0.18690118 -0.48713973 1.650817
-0.2032481 -0.49845597 1.6885954
-0.22723944 -0.52621198 1.7824409
-0.22866173 -0.50153375 1.6970774
-0.23237668 -0.48410836 1.6365106
-0.24480456 -0.48563236 1.6405834
-0.25774291 -0.48798373 1.6474122
-0.26479268 -0.47946754 1.6171684
-0.28105673 -0.48765036 1.6437286
-0.28818458 -0.4799608 1.6162286
-0.30015218 -0.48061386 1.6170529
-0.31214637 -0.48125941 1.6177914
-0.32416663 -0.4818975 1.618444
-0.33814803 -0.48530605 1.6284195
-0.34427986 -0.47759774 1.6006976
-0.35769045 -0.4801586 1.6076851
-0.36588365 -0.47577471 1.5911467
-0.37628266 -0.47443837 1.5848626
-0.39091602 -0.47836223 1.5962543
-0.4047972 -0.48116747 1.6037931
-0.41928414 -0.4845165 1.6130791
-0.42629325 -0.4792769 1.593448
-0.43961784 -0.48122674 1.5979062
-0.44732618 -0.47708657 1.5818988
-0.45456731 -0.47266799 1.5649399
-0.47629109 -0.48315674 1.5977354
-0.47537273 -0.47072437 1.553955
-0.49439269 -0.47815469 1.5763601
-0.50471455 -0.47702593 1.5701818
-0.5164665 -0.47726882 1.5685084
-0.52609098 -0.47557795 1.5603658
-0.53096581 -0.46975705 1.5385201
-0.54666615 -0.47355676 1.5484507
-0.56415361 -0.47871768 1.5627663
-0.57461149 -0.4778263 1.5570455
-0.58501947 -0.47692925 1.5512562
-0.59537715 -0.47602656 1.5453988
-0.60987347 -0.4784044 1.5502285
-0.61167532 -0.47092071 1.5227573
-0.62252766 -0.47055057 1.5185108
-0.64439398 -0.47836995 1.5408517
-0.65500677 -0.4777073 1.5354906
-0.66595972 -0.47731128 1.5309414
-0.67378992 -0.47472858 1.5192674
-0.68660057 -0.47568253 1.5189774
-0.69305658 -0.47227481 1.5045754
-0.71029264 -0.47620457 1.5137231
-0.71246701 -0.47007194 1.4905162
-0.72897297 -0.47343901 1.4977024
-0.73417449 -0.46947363 1.4813985
-0.75122505 -0.47309059 1.4892112
-0.74662071 -0.46316588 1.4539464
-0.77206868 -0.4719018 1.4778295
-0.80417132 -0.48439273 1.5133603
-0.79093546 -0.46960726 1.4627647
-0.80142224 -0.46912515 1.4572592
-0.82119983 -0.47401941 1.468533
-0.82748371 -0.4710972 1.4552603
-0.85610175 -0.48079723 1.4812709
-0.87109131 -0.48268664 1.4828037
-0.87585562 -0.47893482 1.4667833
-0.89184684 -0.48133987 1.4697684
-0.8958813 -0.4773128 1.4528624
-0.90886152 -0.47809362 1.4507164
-0.92031741 -0.47806305 1.4460156
-0.90994012 -0.46683201 1.4071261
-0.9163872 -0.46440125 1.3951286
-0.92589563 -0.46356183 1.38794
-0.89563817 -0.44307035 1.3214178
-0.85200697 -0.41652334 1.2370508
-0.82475609 -0.39850885 1.1787493
-0.86758643 -0.41438153 1.2219644
1.0679253 -0.51559192 1.4793122
1.0394819 -0.50762337 1.4614791
1.0261562 -0.50693804 1.4646872
1.0177221 -0.50868165 1.4749385
1.0006006 -0.50607276 1.4723694
1.006417 -0.51514202 1.504136
0.99133062 -0.51360273 1.5046233
0.97680962 -0.51232195 1.5057869
0.95872521 -0.50911695 1.5011324
0.94634932 -0.50890064 1.5052862
0.90231317 -0.49143535 1.4576708
0.91908914 -0.5070672 1.509185
0.88709289 -0.49584842 1.4799476
0.89482731 -0.50683439 1.5176097
0.88579172 -0.50849009 1.5271014
0.89179993 -0.51894528 1.5633289
0.88566661 -0.52252728 1.5787044
0.84986562 -0.50846046 1.5400845
0.83877146 -0.50898468 1.5459242
0.82719111 -0.50922489 1.5508355
0.81425804 -0.50862718 1.5531033
0.80352139 -0.509404 1.559548
0.78929228 -0.50795674 1.5590478
0.7734164 -0.50538898 1.5549797
0.76559031 -0.50808334 1.5671999
0.74650329 -0.50327122 1.5559599
0.73533261 -0.50372708 1.5610725
0.71893227 -0.50055671 1.5547539
0.71289688 -0.50461751 1.5710616
0.69930816 -0.50337875 1.5706652
0.69300687 -0.5074333 1.5869035
0.66439217 -0.49500537 1.5509769
0.65881401 -0.49960354 1.5688125
0.65048283 -0.5022431 1.5804224
0.62635541 -0.49255836 1.5527667
0.62923795 -0.5041492 1.5927958
0.61475939 -0.5020082 1.5890183
0.59666067 -0.49676937 1.5752339
0.5870592 -0.49853712 1.5838021
0.57412541 -0.49748948 1.583282
0.56568265 -0.5003708 1.5953367
0.55118084 -0.4979012 1.5901077
0.54410774 -0.50218052 1.6065898
0.53264928 -0.50251263 1.6102859
0.52146053 -0.50312001 1.6148163
0.50251877 -0.49610162 1.5945448
0.49115524 -0.49640891 1.5979532
0.47458562 -0.49134114 1.5838102
0.47236228 -0.50124389 1.6183556
0.45850056 -0.49898756 1.613245
0.44651011 -0.49870262 1.6144983
0.43650168 -0.5006758 1.6230791
0.42327154 -0.49896055 1.6195313
0.4154925 -0.50375652 1.6372719
0.39953175 -0.4986231 1.6223769
0.38667202 -0.49716642 1.6194744
0.37687221 -0.4996759 1.6295594
0.3598941 -0.49252319 1.6077614
0.34866872 -0.49302936 1.6111228
0.33663753 -0.49239168 1.6106533
0.32669663 -0.49487495 1.6204387
0.31301284 -0.49166259 1.6113375
0.3047097 -0.49697956 1.6304064
0.28893551 -0.4900493 1.6088563
0.28122029 -0.49677965 1.6325262
0.26715764 -0.4923946 1.6192738
0.25847429 -0.49797577 1.6390547
0.23836428 -0.48102745 1.583901
0.23035207 -0.48802045 1.6082669
0.22341713 -0.49814877 1.6430475
0.20751536 -0.48829842 1.6112601
0.20089614 -0.50041616 1.6526029
0.18895826 -0.49996918 1.6520312
0.16742253 -0.47238258 1.5608425
0.16154595 -0.48819718 1.6143997
0.15202712 -0.49458244 1.6364588
0.14253099 -0.50210589 1.6622839
0.13104267 -0.50333655 1.6670392
0.11773452 -0.49712729 1.6468647
0.10435051 -0.48919335 1.6208522
0.094485581 -0.49783489 1.6502271
0.081883296 -0.49245802 1.6326486
0.070594251 -0.49450868 1.6398697
0.058866862 -0.49369219 1.6374396
0.047314059 -0.49429831 1.6397178
0.035587624 -0.49289453 1.6352112
0.024052199 -0.49405795 1.6392472
0.012663444 -0.50322437 1.6700335
0.00081384531 -0.49435997 1.640375
-0.010775069 -0.4926402 1.6345918
-0.022594405 -0.49777904 1.6517248
-0.034654919 -0.50291008 1.6687746
-0.046956033 -0.50803304 1.6857388
-0.05647919 -0.48711857 1.6154692
-0.067770295 -0.48593462 1.6112145
-0.079470679 -0.48760355 1.6164554
-0.089168228 -0.47811252 1.5843004
-0.10418292 -0.49606466 1.6439043
-0.11349642 -0.48598859 1.6096948
-0.12777199 -0.49705982 1.6461434
-0.13767403 -0.49068725 1.6242222
-0.1482306 -0.48745275 1.6127442
-0.16293812 -0.49735302 1.6450735
-0.1708867 -0.48667791 1.608656
-0.18207645 -0.48599434 1.6055446
-0.19254935 -0.48359114 1.5966486
-0.19965729 -0.47347611 1.5620152
-0.22953434 -0.51557314 1.7012093
-0.22701675 -0.48433274 1.5961486
-0.23847523 -0.48447043 1.5955063
-0.24905431 -0.48289046 1.5891014
-0.25709701 -0.47674504 1.5674908
-0.27126193 -0.4819915 1.5836512
-0.28149337 -0.48010814 1.5760942
-0.29388943 -0.48191971 1.5807301
-0.30420282 -0.48030832 1.5739737
-0.3168655 -0.48238882 1.5793768
-0.32729888 -0.481049 1.5734144
-0.34026557 -0.48339763 1.5795753
-0.34569097 -0.47522721 1.5509925
-0.35414389 -0.4716002 1.5373706
-0.37407205 -0.48301071 1.5731763
-0.37686756 -0.47227842 1.5360988
-0.39430004 -0.47997811 1.5595279
-0.40705383 -0.48171243 1.5632894
-0.41643801 -0.47947308 1.5539738
-0.43076277 -0.4828904 1.5631107
-0.43669122 -0.4769614 1.5416497
-0.45296115 -0.48234177 1.5570532
-0.45804748 -0.4758411 1.5336719
-0.47508192 -0.48176679 1.5506887
-0.48696691 -0.48231611 1.5501398
-0.50236672 -0.48624244 1.5604719
-0.49857911 -0.47183579 1.5113829
-0.51755512 -0.47913006 1.5324928
-0.52815694 -0.47852615 1.5279934
-0.53872347 -0.47791612 1.5234222
-0.55184209 -0.47954878 1.5260081
-0.55744004 -0.47471157 1.5077577
-0.57020718 -0.47604966 1.5092824
-0.59090507 -0.48382983 1.5313271
-0.59938556 -0.48150146 1.520965
-0.60313445 -0.47552893 1.4989662
-0.62178844 -0.48131153 1.5143445
-0.64363521 -0.48931462 1.5366324
-0.64450973 -0.48137274 1.5082852
-0.65414613 -0.48013625 1.5011626
-0.67144817 -0.48447266 1.5115618
-0.67911392 -0.48182747 1.4998846
-0.68266112 -0.47639504 1.4794387
-0.68757659 -0.47207743 1.4625005
-0.71203393 -0.48110092 1.4872346
-0.71850967 -0.4778825 1.473631
-0.72737312 -0.47632682 1.4651843
-0.73916423 -0.47670648 1.4627026
-0.74921608 -0.47596997 1.4567033
-0.7601071 -0.47578025 1.4523432
-0.766945 -0.47309586 1.440251
-0.78591084 -0.47786251 1.451008
-0.77976871 -0.46744341 1.4151531
-0.8090443 -0.47825053 1.4441957
-0.7986533 -0.46563464 1.4017102
-0.77384013 -0.44506532 1.3352476
-0.81635505 -0.46325117 1.38636
-0.8238818 -0.46136504 1.3765358
-0.80900472 -0.44714513 1.3295895
-0.81507063 -0.44471708 1.3182086
-0.7849896 -0.42287791 1.2487892
-0.75704181 -0.40272006 1.1847371
-0.75521249 -0.39678285 1.1632613
-0.76203829 -0.39548233 1.1555805
-0.76879364 -0.39417702 1.1478634
-0.77601421 -0.39313862 1.14091
-0.78751105 -0.39426547 1.1402775
-0.79903787 -0.39538097 1.1395428
-0.80561441 -0.3940495 1.1316162
1.0454074 -0.51659054 1.4452227
1.0382457 -0.51894391 1.4571378
1.0101383 -0.51076126 1.439039
1.0192287 -0.52141559 1.4745461
0.99834043 -0.51680464 1.4664332
0.97655874 -0.51161474 1.4565049
0.9639011 -0.51113659 1.4600182
0.95176345 -0.51092565 1.4642369
0.92523116 -0.50288576 1.4456457
0.90358657 -0.49733251 1.434094
0.89922684 -0.50127256 1.4501364
0.89518154 -0.50549245 1.4670112
0.88554877 -0.50662655 1.4748244
0.89716679 -0.52011049 1.5190315
0.89862961 -0.52799189 1.5468334
0.86760944 -0.51674229 1.5179387
0.8482486 -0.5122211 1.5088136
0.83689529 -0.51247615 1.5138036
0.82506198 -0.51244038 1.5178653
0.8100763 -0.51041722 1.515902
0.77702135 -0.49678227 1.4789163
0.78163421 -0.5071823 1.5141407
0.7702952 -0.50738984 1.5186472
0.75978309 -0.50815678 1.5247906
0.75884193 -0.51544863 1.5507089
0.72585291 -0.50085807 1.5100253
0.71539748 -0.50159651 1.5158664
0.7124911 -0.50773883 1.5381914
0.69239008 -0.50162834 1.5229644
0.67525512 -0.49749625 1.5136728
0.67162383 -0.50334191 1.5349989
0.65948302 -0.50290346 1.5369433
0.64845693 -0.50331455 1.5414487
0.63740313 -0.50371861 1.5458766
0.62347519 -0.50182432 1.5431105
0.61416578 -0.50364596 1.5518236
0.59961855 -0.50115997 1.5470676
0.59393162 -0.50612694 1.5655016
0.57314223 -0.49816555 1.5434762
0.5757131 -0.51059777 1.5852312
0.54658139 -0.49484551 1.5385551
0.53900486 -0.49835336 1.5522346
0.52516502 -0.49609679 1.5477294
0.5170908 -0.49930748 1.560396
0.50477636 -0.49847668 1.5602605
0.49277756 -0.49792615 1.5609453
0.47995886 -0.4965013 1.5587939
0.46992469 -0.49795765 1.5657192
0.4584873 -0.49796274 1.5679843
0.44808224 -0.499118 1.573854
0.4312878 -0.49302977 1.5565801
0.43104583 -0.50604564 1.6001884
0.41243601 -0.49762172 1.5753099
0.4002758 -0.49672094 1.574385
0.39201176 -0.50074404 1.5891739
0.37628186 -0.49518552 1.5731966
0.36550608 -0.49600324 1.5776004
0.36008108 -0.50436848 1.6062196
0.34744352 -0.50285137 1.6030322
0.32671192 -0.48911253 1.5604019
0.31541848 -0.48902786 1.5616618
0.28565976 -0.45925054 1.4670208
0.29474887 -0.49203953 1.5742917
0.28925467 -0.50212848 1.6082916
0.27314463 -0.49386179 1.5828857
0.26235178 -0.49490896 1.5875475
0.24840246 -0.48982665 1.5722921
0.23764688 -0.49085867 1.5767906
0.2269754 -0.49217594 1.582165
0.21624061 -0.49348673 1.5874699
0.20386717 -0.49099609 1.5803708
0.19126126 -0.48762098 1.5703317
0.18322878 -0.49621132 1.5991594
0.17297959 -0.4995403 1.6108341
0.16219762 -0.5016945 1.6186389
0.14631186 -0.48718378 1.5720929
0.1357103 -0.48932168 1.5797248
0.12538067 -0.4929148 1.5920546
0.11366663 -0.49123853 1.5871494
0.10184514 -0.48867705 1.5792985
0.090628006 -0.48873991 1.5799561
0.0805948 -0.49610835 1.6044137
0.06920208 -0.49615729 1.6049255
0.05732907 -0.49210286 1.5919803
0.045942634 -0.49125895 1.589466
0.035069197 -0.49713743 1.6088616
0.023591243 -0.49598613 1.6052376
0.012223569 -0.49716836 1.6091845
0.00079825678 -0.49629471 1.6063603
-0.010624265 -0.49716935 1.6091955
-0.022021772 -0.49657348 1.6071718
-0.033470184 -0.49714059 1.6088943
-0.044864714 -0.49682227 1.6076707
-0.056243774 -0.49649659 1.6063694
-0.067885906 -0.49821144 1.611679
-0.079372697 -0.49845582 1.6121312
-0.090336397 -0.49576783 1.6029568
-0.099854954 -0.48663911 1.5727143
-0.11142153 -0.4883247 1.5777177
-0.12497273 -0.49760404 1.6074297
-0.13397932 -0.48874933 1.5779479
-0.14500909 -0.4880738 1.5750892
-0.15591203 -0.48709908 1.5712047
-0.16616653 -0.48436475 1.5615411
-0.17458263 -0.47695133 1.5366075
-0.18867703 -0.48501024 1.561967
-0.1994088 -0.4840084 1.5577929
-0.22926015 -0.52706814 1.6966965
-0.22406545 -0.48927882 1.5729103
-0.2299062 -0.47804666 1.5353854
-0.24375255 -0.48372599 1.55268
-0.25462914 -0.48327339 1.5500312
-0.26868555 -0.48864165 1.5661709
-0.27931166 -0.48759094 1.5614691
-0.28520176 -0.47867256 1.5312961
-0.29536453 -0.47732133 1.5255492
-0.30770198 -0.47945538 1.5309978
-0.31839189 -0.47896346 1.5279175
-0.33025423 -0.48020923 1.5303797
-0.34134212 -0.48028472 1.5290161
-0.35498524 -0.48383829 1.5387691
-0.36504993 -0.48244673 1.5325754
-0.37549874 -0.48162997 1.5281782
-0.3870689 -0.48225698 1.5283535
-0.39794368 -0.48200691 1.5256642
-0.40757227 -0.4803018 1.5182749
-0.4206509 -0.48264506 1.5237541
-0.42968711 -0.48034891 1.5143822
-0.44577825 -0.48585692 1.5297941
-0.45640141 -0.48528188 1.5257813
-0.45808649 -0.47545722 1.4923841
-0.4786891 -0.48526785 1.5211977
-0.48137671 -0.47688398 1.4923356
-0.49916089 -0.48349607 1.5108367
-0.50932646 -0.48260143 1.505556
-0.51727128 -0.47968557 1.4938673
-0.54979587 -0.49920955 1.5526367
-0.53953761 -0.47988299 1.4893165
-0.55247837 -0.48155129 1.4918664
-0.56178868 -0.48005188 1.4844422
-0.57615948 -0.48285115 1.4903835
-0.58436906 -0.4804787 1.4801363
-0.59175533 -0.47753 1.4680688
-0.60442209 -0.47887215 1.4692832
-0.61272776 -0.4767729 1.459775
-0.62429643 -0.47724184 1.4581652
-0.64271742 -0.48284239 1.4723024
-0.6451478 -0.47644374 1.4494157
-0.64571881 -0.46890837 1.4230702
-0.67545813 -0.48245418 1.4612956
-0.67095202 -0.47149736 1.4244481
-0.69638038 -0.48159021 1.4518291
-0.6905244 -0.47007072 1.4133179
-0.69855392 -0.4682129 1.4042122
-0.70262647 -0.46379948 1.3873479
-0.71215981 -0.46306884 1.3816041
-0.71944159 -0.46091712 1.3715391
-0.72796208 -0.45960987 1.363986
-0.70737487 -0.44022524 1.3022885
-0.71077555 -0.43610531 1.2864165
-0.68837231 -0.41648775 1.2244247
-0.6773892 -0.40422291 1.1845349
-0.67781651 -0.39900681 1.1656671
-0.69348639 -0.40278295 1.1733803
-0.69119042 -0.3961623 1.1503853
-0.70049298 -0.39627519 1.1472142
-0.71730578 -0.40057927 1.1562526
-0.7180571 -0.39591843 1.1390257
-0.732449 -0.39880112 1.1437635
-0.75317049 -0.40501639 1.1580563
-0.76731586 -0.40758678 1.1616591
-0.76723546 -0.40262976 1.1434995
-0.78140569 -0.40518022 1.1469245
-0.81082982 -0.41548702 1.1724277
-0.82971179 -0.4202148 1.1817858
-0.83549774 -0.41827744 1.1720798
1.0324041 -0.52188742 1.4244554
1.0004721 -0.51155412 1.4010152
0.98481321 -0.50939792 1.4000365
0.97138762 -0.50835985 1.4020766
0.96173775 -0.5092966 1.4095654
0.9435395 -0.50567442 1.4042164
0.93964106 -0.50972116 1.4203432
0.91375482 -0.50179303 1.4026464
0.91332793 -0.50782263 1.4243183
0.89842564 -0.50585437 1.4232948
0.88208085 -0.50301319 1.4196869
0.87624931 -0.50617123 1.4331392
0.96631539 -0.56553644 1.6079258
0.87189436 -0.51707387 1.4732356
0.83540404 -0.50212216 1.4344214
0.82690728 -0.50381696 1.4435015
0.81506151 -0.50349021 1.4466795
0.81057972 -0.50776702 1.4631985
0.78909713 -0.50136435 1.4485427
0.78893632 -0.50851953 1.4734207
0.77254325 -0.50526845 1.4678024
0.76194346 -0.50576597 1.4731065
0.75217032 -0.50683546 1.4800459
0.74064392 -0.50673836 1.4834901
0.73495919 -0.51069736 1.4988997
0.71139288 -0.50215966 1.4771614
0.69872069 -0.50116068 1.477703
0.69007343 -0.50306314 1.486835
0.67858237 -0.50292128 1.4898149
0.6694085 -0.50452113 1.4979572
0.65101904 -0.49911085 1.4849873
0.63809371 -0.49777344 1.4841579
0.62889814 -0.49934977 1.4920486
0.61600608 -0.49799511 1.4910334
0.59747291 -0.49194551 1.4757121
0.58687687 -0.49232629 1.4797889
0.58757502 -0.50237834 1.5132401
0.57133341 -0.49805686 1.50293
0.56286794 -0.5004769 1.5131018
0.54781038 -0.49701482 1.5052451
0.5401994 -0.50030529 1.5179883
0.52528048 -0.49682355 1.5099165
0.5178203 -0.50039846 1.5234517
0.5146724 -0.50839162 1.5505742
0.50036699 -0.5054763 1.5440623
0.47619 -0.49222142 1.5055158
0.47937289 -0.50728977 1.5544351
0.45681351 -0.4951871 1.5192293
0.44462326 -0.49400127 1.5177383
0.43507496 -0.49576491 1.5253475
0.4224059 -0.49397185 1.5218463
0.41375506 -0.49690789 1.53301
0.39920786 -0.49272898 1.5219419
0.39114434 -0.49654245 1.5357533
0.38177213 -0.49886984 1.5448892
0.36942637 -0.49733484 1.5418919
0.35842645 -0.49757233 1.5443846
0.34554547 -0.49512985 1.5384127
0.33537701 -0.4965409 1.5444751
0.32572368 -0.49883789 1.5532774
0.31165099 -0.49428928 1.5404906
0.30121326 -0.49538285 1.5453984
0.29054841 -0.4961724 1.5492991
0.27950904 -0.49635991 1.5512495
0.26427034 -0.48879582 1.5286598
0.25322509 -0.48866844 1.5294883
0.24292079 -0.49002415 1.5349554
0.2317059 -0.48958457 1.5346912
0.22171761 -0.49182197 1.5428534
0.21098723 -0.49256167 1.5462234
0.19961527 -0.49180254 1.5447885
0.18861781 -0.49193117 1.5461156
0.17771977 -0.49235123 1.5483158
0.16680045 -0.49276412 1.5504419
0.15614353 -0.49406609 1.5553429
0.14525075 -0.49476379 1.5582732
0.13205622 -0.48708728 1.5345055
0.1241833 -0.49942559 1.5743778
0.11305076 -0.49980339 1.5761399
0.10122978 -0.49688533 1.5673511
0.090242982 -0.4978461 1.5708629
0.077977188 -0.49102473 1.5495213
0.06789232 -0.4979516 1.5719435
0.055860627 -0.49051586 1.5485289
0.044791132 -0.48995128 1.5469654
0.033107042 -0.48010615 1.5157522
0.022963656 -0.49388522 1.5598304
0.011863186 -0.49359766 1.5589951
0.00077468157 -0.49270448 1.5561758
-0.010311036 -0.4935987 1.5590059
-0.021397702 -0.49358821 1.5588976
-0.03258184 -0.49506581 1.5634836
-0.043778881 -0.49593773 1.5660845
-0.054848645 -0.49530652 1.5638399
-0.065530568 -0.49197641 1.5529399
-0.076946266 -0.49432138 1.5600791
-0.088465914 -0.4966585 1.5671376
-0.097330354 -0.4852348 1.5303047
-0.10848103 -0.48636201 1.5334102
-0.12026751 -0.48987272 1.544049
-0.13317038 -0.496961 1.566012
-0.14248395 -0.4905943 1.5451061
-0.15403363 -0.49228829 1.5497934
-0.16365358 -0.48800114 1.5354153
-0.17649791 -0.49326336 1.5513302
-0.18571529 -0.4883664 1.5349237
-0.19675404 -0.48853818 1.5345635
-0.22568478 -0.53077048 1.6675113
-0.22151539 -0.49482509 1.5525157
-0.22681211 -0.4824498 1.5122527
-0.23757324 -0.48229632 1.5106645
-0.24863093 -0.48273209 1.5108873
-0.26050472 -0.48464972 1.5157369
-0.27012557 -0.48239025 1.5073382
-0.2760011 -0.4738746 1.4791669
-0.29229286 -0.48321116 1.5072451
-0.30321065 -0.48331314 1.506144
-0.31412846 -0.48340812 1.504967
-0.32324773 -0.48082155 1.4953102
-0.33348578 -0.48001242 1.4911957
-0.34389597 -0.47949415 1.4879448
-0.35361966 -0.47807914 1.4818356
-0.36621431 -0.48051456 1.4877278
-0.37774798 -0.48145831 1.4888872
-0.39075264 -0.4841722 1.4955089
-0.40362543 -0.48658001 1.501101
-0.41357201 -0.48542643 1.4955332
-0.41854692 -0.47864646 1.4724306
-0.43302941 -0.48280659 1.4832903
-0.44469973 -0.48370466 1.4839468
-0.45306537 -0.48105106 1.4735467
-0.45817786 -0.47514743 1.4530714
-0.47874117 -0.48517078 1.4817443
-0.4881337 -0.48367932 1.474788
-0.49350375 -0.47835368 1.4559965
-0.50359923 -0.47773784 1.4516661
-0.5089103 -0.47270358 1.4337413
-0.52530247 -0.47795758 1.4472996
-0.5379613 -0.47967222 1.4499329
-0.54934323 -0.48020336 1.4488822
-0.55663425 -0.47720695 1.4370327
-0.56831747 -0.47801799 1.4367278
-0.57789844 -0.4770636 1.4310039
-0.58959591 -0.47785923 1.4305309
-0.59911442 -0.47689208 1.4246682
-0.61119747 -0.47796431 1.4249068
-0.61989832 -0.47640035 1.4171478
-0.61539614 -0.46491489 1.379583
-0.61941725 -0.46014437 1.3622175
-0.62362403 -0.45566615 1.3457341
-0.60496944 -0.43489808 1.2807097
-0.60760921 -0.42985475 1.2626753
-0.61419541 -0.42771745 1.2532806
-0.60502672 -0.41484344 1.2120963
-0.59273034 -0.40024799 1.1659691
-0.59939849 -0.3987034 1.158434
-0.60731566 -0.39802283 1.1534119
-0.61608881 -0.39791483 1.1500301
-0.6234864 -0.39693424 1.1440537
-0.64002109 -0.40171632 1.1548331
-0.6381256 -0.39495826 1.1319641
-0.65809476 -0.40173286 1.1483601
-0.66735291 -0.40187407 1.1454365
-0.68192059 -0.40516615 1.1515385
-0.69269758 -0.40614897 1.1509058
-0.70201635 -0.40626246 1.14772
-0.71132642 -0.40636787 1.144462
-0.71961337 -0.40589365 1.1395056
-0.73658061 -0.41026607 1.1482577
-0.74593514 -0.4103426 1.1447382
-0.76366359 -0.41496766 1.1539881
-0.77043563 -0.41359934 1.1462715
-0.78356349 -0.41563499 1.1480622
-0.78593099 -0.41198215 1.1338986
-0.82970273 -0.42986575 1.1796304
-0.83162034 -0.42590287 1.1644471
1.0093467 -0.52169251 1.3896998
0.96162695 -0.50273639 1.3435154
0.95622182 -0.50571883 1.3564225
0.93984586 -0.5029009 1.353543
0.94392902 -0.51109368 1.3806307
0.9222157 -0.50534797 1.3696136
0.90333259 -0.50103205 1.3623667
0.89861017 -0.50456059 1.376628
0.89680803 -0.50983769 1.3957359
0.89832926 -0.51716131 1.4205627
0.88399702 -0.51542902 1.4202361
0.87615943 -0.5174877 1.4304129
0.82268143 -0.49228942 1.3641819
0.82535404 -0.50046778 1.3912835
0.82290298 -0.50571811 1.41021
0.81975269 -0.51067662 1.4283395
0.81172717 -0.51269341 1.4381502
0.79394549 -0.50851834 1.4303302
0.78312981 -0.50874931 1.4349473
0.77139515 -0.50838149 1.437797
0.76717526 -0.51302797 1.4549539
0.73442101 -0.49844706 1.4168713
0.72503197 -0.49952254 1.4236188
0.6948266 -0.48606896 1.3883638
0.70859092 -0.50343466 1.4420847
0.69899768 -0.50449294 1.4486661
0.67759687 -0.49692619 1.4301139
0.66647673 -0.49677455 1.4330211
0.65810287 -0.49869889 1.4419349
0.65505219 -0.50479043 1.4630212
0.63727939 -0.4995515 1.4508702
0.62345821 -0.49728084 1.4473258
0.60972285 -0.49499881 1.4436623
0.59752101 -0.49390143 1.4434125
0.59033191 -0.49698368 1.4554625
0.58125883 -0.49856609 1.4630435
0.56491196 -0.49385041 1.4518729
0.55245697 -0.49241903 1.4503688
0.54863745 -0.49878117 1.4720335
0.53677034 -0.49793732 1.4721819
0.52620083 -0.49828708 1.4758365
0.51529801 -0.49832934 1.478516
0.50986826 -0.50378126 1.4973836
0.49286878 -0.49778977 1.4818289
0.48078585 -0.49660468 1.4806391
0.46789068 -0.4945063 1.4766262
0.45703071 -0.49451005 1.4788904
0.44398502 -0.49209151 1.4737685
0.43981186 -0.49963152 1.4987499
0.43089858 -0.50203484 1.5081512
0.42111719 -0.50352651 1.5147457
0.4092944 -0.50259185 1.5139138
0.39558697 -0.49922705 1.5056142
0.38201919 -0.49585152 1.4972008
0.37199411 -0.49701118 1.5025592
0.35728797 -0.49179763 1.4883834
0.35156471 -0.49900919 1.5121523
0.33558127 -0.491653 1.4912727
0.32251927 -0.48823005 1.4823573
0.31212309 -0.4887459 1.4854624
0.30132535 -0.48864731 1.4866289
0.29179323 -0.49066964 1.4942673
0.28147241 -0.49147007 1.4981014
0.2711128 -0.49226382 1.5018665
0.26055396 -0.49274683 1.5046241
0.25135913 -0.49596301 1.5157696
0.23965792 -0.49430126 1.5118062
0.2297181 -0.49628702 1.5190607
0.21619488 -0.49034333 1.5017369
0.20675956 -0.49353406 1.5126169
0.19246112 -0.48482737 1.486599
0.18414523 -0.49105394 1.506788
0.17210788 -0.48751399 1.4966558
0.16295071 -0.49220416 1.512
0.15151043 -0.49017447 1.5064441
0.14182238 -0.49393687 1.5188217
0.1306721 -0.49280813 1.5159591
0.11904965 -0.4895339 1.5063727
0.10838006 -0.48991668 1.5080997
0.098483495 -0.49426335 1.5221072
0.08817818 -0.49738178 1.5322497
0.076643318 -0.49346587 1.5204521
0.066094376 -0.49565342 1.5275979
0.055788931 -0.50089002 1.5441889
0.043968465 -0.49175546 1.5159798
0.033187784 -0.49208739 1.5171952
0.022114195 -0.48629883 1.4992963
0.011503124 -0.48936695 1.5089324
0.00075770763 -0.49273342 1.5194476
-0.010004327 -0.48967358 1.5098945
-0.020968564 -0.49455363 1.5250223
-0.031949989 -0.49636954 1.5305537
-0.042087 -0.48748082 1.5026963
-0.052726451 -0.48683727 1.5004689
-0.063655175 -0.48863122 1.5057799
-0.075080223 -0.49316755 1.5195737
-0.085957997 -0.49341831 1.5199744
-0.096545681 -0.49213424 1.5155487
-0.10714206 -0.49114868 1.5120023
-0.11659352 -0.48557517 1.494144
-0.1281994 -0.4891564 1.504697
-0.13900635 -0.48937103 1.5047324
-0.14972705 -0.48927304 1.5037452
-0.16064127 -0.48977831 1.5045791
-0.17178863 -0.49088621 1.5072294
-0.17867096 -0.48039585 1.4738687
-0.18989615 -0.48210108 1.4782797
-0.20968692 -0.50422335 1.5458515
-0.23511118 -0.53699243 1.6462275
-0.22315855 -0.48534051 1.4853643
-0.23007819 -0.47757217 1.4602736
-0.24723832 -0.49081057 1.500028
-0.25313109 -0.48150963 1.4701293
-0.26411384 -0.48224872 1.4711748
-0.27391207 -0.48085138 1.4655845
-0.28148699 -0.47579974 1.4487054
-0.2929405 -0.47743109 1.4523487
-0.30137146 -0.47419378 1.4409779
-0.31564692 -0.48006171 1.4575115
-0.32542878 -0.47893688 1.4525234
-0.33685952 -0.48023316 1.454903
-0.34417349 -0.47575995 1.439577
-0.35738862 -0.47946739 1.449219
-0.36401743 -0.47437939 1.4319464
-0.37830782 -0.4792811 1.4451005
-0.38961229 -0.48023698 1.4461552
-0.39994413 -0.47997504 1.4434481
-0.41310239 -0.4830316 1.4507619
-0.42400086 -0.48335883 1.4497236
-0.43490711 -0.48367876 1.4486063
-0.44637656 -0.48459485 1.4492337
-0.45617226 -0.48369342 1.4443133
-0.46621355 -0.4830876 1.4402375
-0.46819583 -0.47434393 1.4116302
-0.48164219 -0.47734269 1.4183227
-0.48342571 -0.46890122 1.390627
-0.49180561 -0.46707681 1.382771
-0.50074661 -0.46584889 1.3766629
-0.5076527 -0.4628149 1.3651272
-0.4983156 -0.44538233 1.3107001
-0.5077225 -0.44505152 1.3072382
-0.50457197 -0.43393376 1.2717323
-0.49704552 -0.41953477 1.2265904
-0.5058642 -0.4192051 1.2231364
-0.49924347 -0.4063215 1.1826229
-0.50663555 -0.40509483 1.1765176
-0.51320916 -0.40326741 1.1686167
-0.52008426 -0.40173483 1.161556
-0.52218288 -0.39662543 1.1440126
-0.5316267 -0.39717123 1.1429838
-0.54512864 -0.40068227 1.1505299
-0.54727167 -0.39586532 1.1338055
-0.56045723 -0.39906168 1.1403086
-0.56361789 -0.39513144 1.126132
-0.58376402 -0.40304774 1.1461046
-0.59465563 -0.40443334 1.1471434
-0.60779929 -0.40728727 1.1523247
-0.61613113 -0.40688065 1.1480924
-0.6294201 -0.40971255 1.1530548
-0.64051753 -0.41105816 1.1536993
-0.64700693 -0.4094502 1.1458983
-0.6689657 -0.41754171 1.165508
-0.70125753 -0.43177661 1.2022645
-0.69112664 -0.41985965 1.1652027
-0.69956893 -0.41939121 1.1603869
-0.7094633 -0.41979417 1.157967
-0.73437822 -0.4289605 1.179912
-0.72622001 -0.41882092 1.1480212
-0.732499 -0.41715685 1.13973
-0.72315639 -0.40674752 1.1072831
-0.7573846 -0.42080003 1.1422751
-0.76885295 -0.42202079 1.1417809
-0.7787475 -0.4223589 1.1388054
-0.78214788 -0.41920841 1.1262766
-0.79579288 -0.42155808 1.1286885
-0.80454218 -0.42129022 1.1239312
0.96286047 -0.50859845 1.3224535
0.96426344 -0.51518935 1.344674
0.94023401 -0.50818741 1.330953
0.93377382 -0.5106284 1.342153
0.91220224 -0.50476563 1.3311912
0.91150463 -0.51045132 1.3509817
0.90794784 -0.51465499 1.3668392
0.89176685 -0.51171809 1.3634751
0.89465147 -0.51978499 1.3897502
0.88808036 -0.52249271 1.4015751
0.84380597 -0.50280327 1.3524582
0.83445621 -0.50368369 1.3590854
0.83484334 -0.51054174 1.3820331
0.8465482 -0.52459598 1.424793
0.80371964 -0.5047797 1.3744638
0.79938942 -0.5089311 1.3899437
0.78742957 -0.50827283 1.3921134
0.77915943 -0.5100112 1.4008712
0.75492752 -0.50120205 1.3802278
0.75789416 -0.51045656 1.4098295
0.73221338 -0.50040489 1.3854649
0.73218632 -0.50784707 1.4099965
0.72025162 -0.50713038 1.4116198
0.70918059 -0.50700903 1.414855
0.69768566 -0.50657618 1.4171499
0.68743044 -0.50704396 1.4219342
0.66742539 -0.50021952 1.4059472
0.65845519 -0.50157744 1.4131159
0.64627832 -0.50049716 1.4132857
0.641864 -0.50549364 1.4307698
0.62506896 -0.50074404 1.4203157
0.61855608 -0.5042094 1.4333502
0.60343415 -0.50065553 1.426159
0.58917195 -0.4976989 1.4205918
0.57218122 -0.49228531 1.4078305
0.560987 -0.4917489 1.4090791
0.55425984 -0.49518272 1.4217895
0.54839134 -0.4995333 1.4371474
0.53705657 -0.49897882 1.4382073
0.527031 -0.49964303 1.4427619
0.50777274 -0.49139977 1.4212258
0.50252402 -0.4966521 1.4390742
0.49552751 -0.5003677 1.4524109
0.47883394 -0.49423903 1.4368033
0.47784144 -0.50440621 1.4690402
0.44961682 -0.48563203 1.4160103
0.45170975 -0.49948984 1.4590861
0.4401499 -0.4985579 1.4585054
0.42623138 -0.49484107 1.4496171
0.4153147 -0.4945083 1.4506762
0.40314248 -0.49262378 1.4470717
0.3981851 -0.49969167 1.4700109
0.39148587 -0.50490493 1.4874301
0.37873095 -0.50238276 1.4817808
0.36721063 -0.50139827 1.4806468
0.34890282 -0.49080613 1.4507517
0.34000859 -0.49320859 1.4595926
