# .PCD v0.7 - Point Cloud Data file format
VERSION 0.7
FIELDS x y z
SIZE 4 4 4
TYPE F F F
COUNT 1 1 1
WIDTH 1351
HEIGHT 1
VIEWPOINT 0 0 0 1 0 0 0
POINTS 1351
DATA ascii
-0.57942045 -0.03318103 0.95067453
-0.59911335 0.010956252 0.95324033
-0.60631102 0.0183529 0.94982022
-0.60881108 0.048152044 0.95313257
-0.6078006 0.040653598 0.95174766
-0.59720892 0.032655895 0.93507576
-0.58786756 0.06972333 0.94829679
-0.64902592 0.10936689 0.95312732
-0.64749676 0.10157404 0.95137537
-0.66365057 0.19452225 0.95178676
-0.65346867 0.17855749 0.95321751
-0.63747603 0.10117956 0.95084578
-0.63720435 0.11614181 0.9493413
-0.62730128 0.13812141 0.94692254
-0.58722258 0.18212608 0.95290202
-0.60465556 0.24881811 0.97288436
-0.60136616 0.23984554 0.96873248
-0.5774675 0.25462416 0.97335005
-0.72952276 0.57288718 0.98055065
-0.67368811 0.31371099 0.94708943
-0.68149394 0.36438328 0.94793582
-0.64710081 0.35065109 0.94375861
-0.66612822 0.39592782 0.94751775
-0.61377442 0.27244738 0.96823323
-0.61563832 0.26557249 0.97257608
-0.60818917 0.28879935 0.97188205
-0.60648441 0.28030598 0.97054428
-0.63882065 0.32722905 0.95126712
-0.63869286 0.31946194 0.95270354
-0.61428857 0.30725816 0.94655955
-0.59628505 0.27147692 0.97080511
-0.6053825 0.25678712 0.97280109
-0.58085752 0.29436848 0.97224408
-0.57010198 0.27755669 0.97263944
-0.61902547 0.37237212 0.97269046
-0.60732687 0.36222962 0.9713825
-0.61693043 0.36329567 0.97119725
-0.62871575 0.3999294 0.94934553
-0.60806078 0.39387798 0.96494848
-0.60951543 0.38699886 0.96926427
-0.6191352 0.38812634 0.96903157
-0.62469745 0.38671377 0.96231908
-0.61807489 0.37963095 0.96927905
-0.62311399 0.37793779 0.96176577
-0.60435051 0.33631316 0.93942714
-0.58591777 0.37409845 0.96396297
-0.57628679 0.35747778 0.96732032
-0.68446916 0.43395653 0.95067686
-0.70296437 0.57508498 0.95346642
-0.69063973 0.56350541 0.95411903
-0.63935047 0.44548094 0.90635198
-0.60462266 0.43820208 0.94685489
-0.58991241 0.56238377 0.95073849
-0.60003173 0.56439662 0.9512015
-0.7216568 0.54789156 0.99344212
-0.33139914 -0.38806823 0.65055698
-0.55964285 -0.51176733 0.89125204
-0.5600605 -0.50392562 0.91218626
-0.51947629 -0.4050028 0.93214065
-0.50951463 -0.41778275 0.9259041
-0.50631583 -0.39312378 0.92609823
-0.49560651 -0.40506506 0.91825974
-0.50594378 -0.40751484 0.92137778
-0.49869552 -0.41493109 0.92200869
-0.49186102 -0.42270795 0.92336076
-0.50089663 -0.42413619 0.92402905
-0.4998644 -0.38646954 0.93228036
-0.49261031 -0.39391157 0.93301439
-0.49859732 -0.39282978 0.92792112
-0.50147009 -0.3966364 0.91510963
-0.46363953 -0.51868445 0.88518244
-0.44414145 -0.50574607 0.88228774
-0.44840193 -0.4526059 0.89110291
-0.44680122 -0.43679023 0.89233732
-0.45059446 -0.43360814 0.8834734
-0.45739219 -0.40598497 0.87110865
-0.45133397 -0.41372859 0.87306356
-0.44967923 -0.4191373 0.86771315
-0.46380079 -0.39166322 0.87179434
-0.46805543 -0.42184821 0.90812165
-0.48404735 -0.40152857 0.91256225
-0.45923811 -0.40682849 0.89278883
-0.4464713 -0.42265666 0.8773939
-0.43423885 -0.43140966 0.86466044
-0.46587166 -0.44803035 0.93335521
-0.47398245 -0.44745561 0.99332446
-0.48092735 -0.44668072 0.98918205
-0.47888112 -0.43010265 0.96880543
-0.46647838 -0.43271551 0.97954535
-0.47812054 -0.43635347 0.98552984
-0.48169997 -0.41732532 0.9788664
-0.48049715 -0.42391863 0.97427487
-0.41029593 -0.39995229 0.95275307
-0.40826365 -0.39778388 0.96955317
-0.41791731 -0.39990944 0.97275114
-0.38870385 -0.4519597 0.82088387
-0.38572657 -0.43457794 0.80090952
-0.33373702 -0.39807841 0.76802397
-0.39885557 -0.46488395 0.86192399
-0.3994455 -0.469183 0.92464596
-0.35189143 -0.42365202 0.87034273
-0.34462887 -0.41082135 0.89664215
-0.34092692 -0.38592401 0.89276707
-0.40158686 -0.39864299 0.93022972
-0.29729193 -0.36190277 0.6331706
-0.30064893 -0.35977873 0.62786162
-0.28990996 -0.36420792 0.62782687
-0.54944116 -0.36802822 0.9315396
-0.54131818 -0.38240379 0.92929995
-0.55288249 -0.32849756 0.9307217
-0.55503482 -0.3445912 0.93101078
-0.5446707 -0.32799593 0.93203533
-0.53915483 -0.31008875 0.92563194
-0.51838297 -0.33267716 0.93077433
-0.49141917 -0.28174791 0.92169666
-0.47848257 -0.38402572 0.88795078
-0.41757026 -0.3256678 0.89128387
-0.40918893 -0.32996193 0.90738577
-0.4130342 -0.32750514 0.89847535
-0.41509441 -0.33606508 0.90137589
-0.40869629 -0.32262939 0.90789729
-0.41644964 -0.32326442 0.90765953
-0.44554323 -0.3490676 0.9324708
-0.41379222 -0.37446991 0.94757318
-0.40691498 -0.38210571 0.94865978
-0.41570941 -0.38350704 0.95014083
-0.41707912 -0.35047948 0.921758
-0.41269946 -0.3599098 0.92822337
-0.5635491 -0.084389493 0.95228785
-0.51078188 -0.11896399 0.94925195
-0.51980507 -0.11938243 0.95008409
-0.50375074 -0.11180051 0.95266241
-0.51167625 -0.090317003 0.95301694
-0.51111454 -0.097423755 0.95148915
-0.51098901 -0.068583302 0.95289522
-0.51947111 -0.075974338 0.95236993
-0.49388456 -0.075375944 0.95223498
-0.50100708 -0.075369552 0.94969648
-0.50230604 -0.082747944 0.95180744
-0.45721757 -0.20787095 0.93166161
-0.47028407 -0.11070541 0.95274317
-0.47017524 -0.11781121 0.95195705
-0.45368737 -0.095946379 0.95333022
-0.42247552 -0.12350692 0.95328802
-0.42719373 -0.087780483 0.94853163
-0.42913151 -0.095221676 0.95245737
-0.42134631 -0.088023603 0.95326871
-0.42086923 -0.094946608 0.95172727
-0.36803389 -0.37796384 0.79263425
-0.28328162 -0.35741594 0.69239187
-0.25813472 -0.37979677 0.67958915
-0.30519402 -0.36625832 0.83279836
-0.3895973 -0.35191226 0.91120499
-0.37870875 -0.3488481 0.88358861
-0.37906289 -0.35553098 0.90271443
-0.36728883 -0.36444372 0.90973771
-0.37841859 -0.36181584 0.89937031
-0.40004885 -0.3293801 0.88515019
-0.39179966 -0.33492005 0.8821224
-0.39111757 -0.32646942 0.90157634
-0.40258545 -0.33024096 0.91018623
-0.39643496 -0.33787143 0.91238123
-0.39738122 -0.33283165 0.89658266
-0.4028593 -0.32351133 0.91244102
-0.38582182 -0.34238037 0.88420337
-0.34772664 -0.37223747 0.89475089
-0.32758939 -0.34458229 0.86434329
-0.33390704 -0.34433132 0.86206341
-0.40183032 -0.32835317 0.92834026
-0.38807708 -0.33572587 0.93149674
-0.39372587 -0.33452263 0.92616808
-0.38978928 -0.33814725 0.91509271
-0.39162797 -0.31027937 0.9465825
-0.39807087 -0.30974507 0.94297707
-0.39065695 -0.31662196 0.94265097
-0.39671588 -0.31578386 0.93817061
-0.4042272 -0.31611088 0.93717462
-0.39184633 -0.32471952 0.94397992
-0.39719221 -0.3232646 0.93773299
-0.40359104 -0.32270268 0.93409371
-0.37927839 -0.34123096 0.92741132
-0.38528731 -0.34032661 0.92301965
-0.36740762 -0.34373745 0.91530955
-0.37441367 -0.34379682 0.9136312
-0.36767396 -0.30812961 0.94550997
-0.37516773 -0.30846962 0.94474149
-0.38231584 -0.30851817 0.94302589
-0.36846659 -0.3158893 0.94604439
-0.3752777 -0.31565014 0.94348508
-0.38100857 -0.31452811 0.93821442
-0.36651754 -0.32127625 0.93939346
-0.37433738 -0.32193154 0.9395119
-0.38076097 -0.32138398 0.93602496
-0.32675794 -0.3656792 0.9232102
-0.33317718 -0.36508372 0.92005223
-0.3341808 -0.3731558 0.92104107
-0.32157475 -0.36673084 0.90652579
-0.32511628 -0.36981717 0.89382535
-0.31172478 -0.37681159 0.89564139
-0.32044625 -0.34495938 0.90855139
-0.31003776 -0.35452175 0.896119
-0.26265815 -0.32273185 0.83751023
-0.31004968 -0.3141211 0.92961115
-0.31856409 -0.31572035 0.93288195
-0.3110314 -0.32203826 0.93104577
-0.30696058 -0.32465535 0.91708606
-0.26534209 -0.28135034 0.8336727
-0.38918838 -0.10103726 0.95022929
-0.39771298 -0.1014367 0.95214123
-0.40551481 -0.10164119 0.95214468
-0.28995669 -0.13887976 0.89340895
-0.27844691 -0.089985482 0.86103934
-0.28230128 -0.097514234 0.87272507
-0.27710161 -0.071048513 0.85794288
-0.28187543 -0.078546166 0.8726325
-0.27850515 -0.083805673 0.86163342
-0.28464356 -0.1046586 0.87961376
-0.22705504 -0.39270288 0.68682969
-0.22409891 -0.38610929 0.69968617
-0.21699397 -0.40422302 0.71082193
-0.068967149 -0.38681343 0.69749206
-0.062611677 -0.40969685 0.75294703
-0.050472226 -0.40988186 0.74123293
-0.021320313 -0.39342201 0.71171319
-0.0082300603 -0.30924544 0.55626386
-0.0084921224 -0.31469238 0.57603604
0.00029482931 -0.30544752 0.54928195
-0.0039170538 -0.30544561 0.54926944
0.013205218 -0.30763435 0.56271046
0.008904174 -0.3076458 0.5627867
0.004651932 -0.31094065 0.56901276
0.00030387071 -0.3104735 0.568147
-0.004049392 -0.31141096 0.56989974
0.0097137503 -0.31215408 0.62333822
0.032417204 -0.31876159 0.60359043
0.027834669 -0.31879184 0.60379791
0.018371586 -0.31380662 0.5943408
0.03229152 -0.32209307 0.59961087
0.027646957 -0.32119665 0.59804714
0.019400842 -0.32185382 0.63171875
0.014412144 -0.31697339 0.62198859
0.023708209 -0.32041156 0.61774635
0.019220943 -0.32359195 0.62413722
0.014458655 -0.32270598 0.62246901
0.0052189711 -0.32445443 0.64854515
0.00033911617 -0.32226184 0.64407188
0.009950025 -0.32455358 0.63729209
0.0051433635 -0.32456094 0.63734394
0.00033648004 -0.32456365 0.63736284
0.010275537 -0.31531519 0.66501945
0.010375519 -0.32339555 0.67007184
0.0053845369 -0.32468283 0.67283905
0.00035225766 -0.32468554 0.67285883
0.010229009 -0.32377052 0.65881956
0.0052946457 -0.32421073 0.6597743
0.00034637694 -0.32421342 0.65979373
0.01494691 -0.31899732 0.64881855
0.029559013 -0.32393178 0.64704877
0.024691314 -0.32395786 0.64723539
0.01497317 -0.32443503 0.64840627
0.015448177 -0.3246634 0.67269593
0.070422284 -0.36297256 0.6531713
0.036778823 -0.33050808 0.59487593
0.034518734 -0.32477883 0.64862359
0.012768555 -0.30162078 0.54211032
0.0085689947 -0.30020475 0.53954571
0.0044575618 -0.30211464 0.5431087
0.029442869 -0.30200809 0.54240757
0.025161352 -0.30060977 0.53995991
0.021017844 -0.30063397 0.54011911
0.01698022 -0.30255666 0.54376644
0.0045511918 -0.29995358 0.55785054
0.026303412 -0.29692093 0.57120901
-0.0090845814 -0.068346135 0.67215168
-0.013771123 -0.068244569 0.67107874
-0.0090955449 -0.073141322 0.67266375
0.00032964052 -0.12488844 0.66727036
-0.18542069 -0.38079283 0.79228818
-0.18587224 -0.36963302 0.82976508
-0.21011059 -0.28373408 0.79176146
-0.17615423 -0.23259656 0.81376195
-0.10234079 -0.32178146 0.72745872
-0.10087337 -0.32249638 0.71524739
-0.10511576 -0.23055498 0.77182561
-0.12303431 -0.24406996 0.81686705
-0.14821805 -0.32529926 0.84423524
-0.21044122 -0.15268497 0.76966733
-0.2048409 -0.19147325 0.76474047
-0.20297639 -0.11827921 0.76709569
-0.08902584 -0.14471297 0.74279624
-0.0891442 -0.10804717 0.74785304
-0.089084223 -0.1184983 0.74630737
-0.0883637 -0.12275923 0.73959804
-0.088212922 -0.086076617 0.74163252
-0.087678313 -0.10109157 0.73577374
-0.088505894 -0.070679232 0.74521303
-0.088831477 -0.076186217 0.7476784
-0.088235214 -0.080886602 0.7422021
-0.090553194 -0.14184704 0.75646764
-0.092100687 -0.11707066 0.77264559
-0.090020649 -0.066571653 0.75854349
-0.22831933 -0.12351996 0.84112668
-0.23315674 -0.12289687 0.83572596
-0.22373553 -0.11825932 0.84828812
-0.085953593 -0.35892233 0.71572781
-0.01068816 -0.32407811 0.75189924
-0.016244965 -0.32445565 0.75272799
-0.069567285 -0.23045255 0.81647015
-0.069444962 -0.23586833 0.81391805
-0.057856977 -0.23026256 0.81637919
-0.057821963 -0.23594618 0.81478727
-0.063782029 -0.23645447 0.81629115
-0.029089119 -0.29808962 0.81419045
0.0054674363 -0.32457185 0.68503362
0.00035721762 -0.32415408 0.68414629
-0.0047459351 -0.32415208 0.68413126
-0.0048945565 -0.31851426 0.71080512
0.010856942 -0.32266635 0.70671463
0.0056192628 -0.32308164 0.70768416
0.00036436433 -0.32022879 0.70131361
-0.0048840521 -0.3230823 0.70768923
0.010710041 -0.32347444 0.6953817
0.0055574975 -0.32472438 0.69816792
0.0003621816 -0.32348448 0.69545776
-0.0048303683 -0.32472503 0.69817293
0.031008208 -0.32448792 0.68440717
0.02590186 -0.32451409 0.68460262
0.020767454 -0.32411522 0.68385613
0.015686013 -0.32455236 0.68488824
0.011467135 -0.25216627 0.77003342
0.0059275934 -0.25217223 0.77009296
0.03917855 -0.24670853 0.77087289
0.050138708 -0.31387952 0.85753006
0.043930646 -0.3139146 0.85785174
-0.067324951 -0.14850017 0.73611575
-0.046650019 -0.14898747 0.73962808
-0.062130049 -0.14852881 0.73655748
-0.030345783 -0.14594628 0.7247377
-0.035788324 -0.14728469 0.73137343
-0.036508761 -0.14498137 0.7470805
-0.042076334 -0.15132619 0.75168473
-0.0098265363 -0.14520863 0.72136241
-0.015235254 -0.14829667 0.73697299
-0.020567108 -0.14925541 0.74175507
-0.025665022 -0.14847183 0.73767471
-0.015407059 -0.15522736 0.74475998
-0.020690965 -0.15541911 0.74561632
-0.080165088 -0.14776576 0.75957602
-0.085729711 -0.14810303 0.76096386
-0.074779943 -0.15310292 0.75907815
-0.0539275 -0.16031617 0.76856077
-0.059348673 -0.16029026 0.76817435
-0.037649982 -0.16037911 0.76949811
-0.043077912 -0.16036062 0.76922274
-0.010515265 -0.16083443 0.77227861
-0.054711238 -0.14275977 0.70761263
-0.058249515 -0.10507371 0.69349176
-0.07557714 -0.12918474 0.71645278
-0.082130827 -0.13157429 0.729626
-0.067085415 -0.12721841 0.73595881
-0.072447516 -0.12752424 0.73744649
-0.067059219 -0.13235506 0.73507339
-0.072324842 -0.13250032 0.7355786
-0.067207284 -0.13784508 0.73611242
-0.072484314 -0.13799596 0.73661536
-0.077973768 -0.13850394 0.73903877
-0.083715878 -0.13936879 0.74337792
-0.072642587 -0.1435121 0.73761213
-0.071202062 -0.10999771 0.72611183
-0.075789593 -0.10924259 0.72068828
-0.082251459 -0.11111431 0.73293769
-0.066432767 -0.11570501 0.72974968
-0.070799381 -0.11445812 0.7214092
-0.07667505 -0.11565451 0.72877336
-0.080602437 -0.11394642 0.71742702
-0.071813278 -0.12125254 0.73142034
-0.075634941 -0.1191516 0.71814698
-0.075809017 -0.12450346 0.71927875
-0.073117368 -0.10770769 0.74655926
-0.067110613 -0.12207591 0.73680913
-0.082733616 -0.12215281 0.73625809
-0.056136616 -0.125935 0.72893733
-0.05633704 -0.13153896 0.73100716
-0.061561305 -0.13168854 0.73158681
-0.050968245 -0.13612059 0.7275148
-0.056314163 -0.13663781 0.73009235
-0.05061027 -0.14026128 0.72166806
-0.056438599 -0.14210337 0.73110205
-0.051884916 -0.12811862 0.7420916
-0.061909083 -0.12724312 0.73639876
-0.051595174 -0.13259906 0.73726952
-0.046326704 -0.13757938 0.73569971
-0.062183227 -0.13823126 0.73851401
-0.055455144 -0.10918522 0.72149366
-0.06566564 -0.10929036 0.7216534
-0.050709464 -0.11500268 0.72602224
-0.050084434 -0.11862899 0.71635664
-0.055786833 -0.12004629 0.72485721
-0.060879931 -0.12002478 0.72445923
-0.051199235 -0.11095744 0.73369825
-0.046276696 -0.11670224 0.73720086
-0.056994379 -0.1174303 0.74142617
-0.061711784 -0.11649195 0.73510998
-0.046320576 -0.12199996 0.73737252
-0.078434363 -0.091186702 0.69955319
-0.059132483 -0.086839966 0.70598978
-0.064252287 -0.087061077 0.70754743
-0.05446744 -0.09229064 0.70972395
-0.064409733 -0.092255838 0.70891297
-0.059746403 -0.097757712 0.7126404
-0.048946917 -0.066642709 0.70386285
-0.058866017 -0.066711508 0.70412022
-0.064579539 -0.067526296 0.7126286
-0.049138747 -0.071852408 0.70636976
-0.048856698 -0.076360092 0.70189428
-0.053693522 -0.076241836 0.7005527
-0.048776705 -0.081147112 0.7003653
-0.054423347 -0.082257405 0.70992464
-0.059310704 -0.082130134 0.70854598
-0.069869548 -0.087876111 0.71401072
-0.06994433 -0.092991285 0.71438175
-0.076165423 -0.094479784 0.72572976
-0.076345399 -0.099816605 0.72703999
-0.075105093 -0.10322546 0.71452099
-0.080332413 -0.10347902 0.7159602
-0.071877047 -0.085241102 0.73536539
-0.082374506 -0.085425399 0.7362901
-0.078216016 -0.091784611 0.74611086
-0.082460612 -0.090691127 0.73667669
-0.083169647 -0.10191281 0.74226594
-0.071075514 -0.068983532 0.72803098
-0.076566584 -0.069335565 0.73149097
-0.076346509 -0.074249901 0.72902066
-0.071516395 -0.0796794 0.73196983
-0.076632857 -0.079661191 0.73146445
-0.075497225 -0.08353743 0.72003031
-0.082108267 -0.069686346 0.73491067
-0.071628161 -0.074661925 0.73348647
-0.082523227 -0.075218886 0.73837453
-0.083261535 -0.081118561 0.74476337
-0.050114315 -0.088419184 0.71960652
-0.055077616 -0.088285416 0.71825737
-0.050302561 -0.09381704 0.72195548
-0.060656354 -0.094162241 0.72416621
-0.049882423 -0.098056853 0.71536505
-0.055788197 -0.09963268 0.72686809
-0.065883771 -0.099462569 0.72505015
-0.050541427 -0.10444209 0.72455841
-0.054953687 -0.10317013 0.71530932
-0.060213786 -0.1035697 0.71787792
-0.065687358 -0.10424627 0.72238171
-0.055355195 -0.068472281 0.72337157
-0.055045296 -0.073125109 0.71891785
-0.064829029 -0.072801024 0.71512461
-0.060624305 -0.078867465 0.72494698
-0.06551712 -0.078640789 0.72253507
-0.066115931 -0.084472917 0.72890979
-0.061288178 -0.074593805 0.73340207
-0.039293326 -0.12149712 0.70334506
-0.024420278 -0.1115506 0.70460087
-0.019407777 -0.11615033 0.70199907
-0.030235136 -0.12501945 0.72450334
-0.045575839 -0.12514214 0.72471237
-0.030062292 -0.12937428 0.719697
-0.035645559 -0.13126616 0.73029602
-0.04537623 -0.12967537 0.72089225
-0.030573003 -0.1367278 0.73157442
-0.035160977 -0.1345554 0.71955746
-0.040283822 -0.13471963 0.72028255
-0.030600304 -0.14201014 0.73160577
-0.04612558 -0.14214733 0.73180181
-0.041483942 -0.13350189 0.74281985
-0.041557092 -0.14421828 0.74288952
-0.030439386 -0.10533153 0.73159647
-0.040804498 -0.1055874 0.73308861
-0.03042927 -0.11042794 0.73086053
-0.045746703 -0.11024288 0.72909302
-0.030418692 -0.11551919 0.73008978
-0.035497636 -0.11535449 0.72887766
-0.03553183 -0.12059284 0.7290594
-0.040762018 -0.12089817 0.73077089
-0.035047978 -0.1240081 0.71837014
-0.035698351 -0.11085547 0.73359978
-0.040952608 -0.11113493 0.73531437
-0.040938392 -0.1162588 0.73453861
-0.030689586 -0.12172325 0.73618877
-0.015081513 -0.12621112 0.73186654
-0.020120954 -0.12553832 0.72780347
-0.025339451 -0.12602903 0.73060513
-0.020006349 -0.12991394 0.72299165
-0.02539642 -0.13146377 0.73169655
-0.0099397609 -0.1365815 0.73114389
-0.014989917 -0.13567659 0.72614115
-0.020238167 -0.13656896 0.7309379
-0.025218833 -0.13565989 0.72586673
-0.015142557 -0.14222628 0.73305595
-0.02530848 -0.14127569 0.72786957
-0.0099700205 -0.13183147 0.73402786
-0.015274473 -0.13303903 0.74083489
-0.010040281 -0.14316496 0.73805344
-0.020416187 -0.14296521 0.73686332
-0.020069407 -0.10478985 0.72798228
-0.0097748823 -0.1089924 0.72151935
-0.014839014 -0.1089882 0.72143531
-0.0099288747 -0.11585393 0.73261625
-0.015013054 -0.11539038 0.72956687
-0.02013587 -0.11538412 0.72944701
-0.0098203765 -0.11967622 0.72391188
-0.015047411 -0.12079008 0.73073632
-0.024813248 -0.11837879 0.71566212
-0.0098035568 -0.12455082 0.72209233
-0.020249734 -0.11088399 0.73417234
-0.025668638 -0.11204644 0.74192607
-0.033401772 -0.098903924 0.68587273
-0.044223838 -0.086763881 0.70605707
-0.033268865 -0.069706172 0.68535614
-0.02936613 -0.066952772 0.70791459
-0.034125924 -0.066577539 0.70371878
-0.039423704 -0.067214161 0.71042925
-0.043841925 -0.066376552 0.70119822
-0.029198013 -0.071493253 0.70346385
-0.038928945 -0.071279705 0.70101106
-0.029514007 -0.077244058 0.710908
-0.034110107 -0.076390862 0.70274335
-0.044003963 -0.076477192 0.70320344
-0.038963661 -0.081170171 0.70096391
-0.0093797632 -0.085146807 0.69344276
-0.014478506 -0.086574495 0.70527428
-0.019579398 -0.087285213 0.71111351
-0.024526149 -0.087159827 0.70997071
-0.0095872032 -0.091997348 0.70871639
-0.014593975 -0.092245825 0.71061772
-0.0093890708 -0.065772094 0.69550216
-0.014532793 -0.067059129 0.70935917
-0.019273199 -0.071207821 0.70081085
-0.024142032 -0.071103878 0.69966811
-0.014346464 -0.075992145 0.69942892
-0.019268572 -0.076093674 0.70030832
-0.024304081 -0.076510996 0.70413548
-0.01440264 -0.081205286 0.7018742
-0.024499238 -0.082094774 0.70955533
-0.029942364 -0.088463753 0.72069889
-0.034705169 -0.087739438 0.71452695
-0.040194005 -0.088801861 0.72319579
-0.029974131 -0.093612261 0.72106946
-0.035119493 -0.093854658 0.72282958
-0.040398248 -0.094347462 0.72653496
-0.044818491 -0.092949413 0.71535003
-0.030086074 -0.099035405 0.72338474
-0.035533033 -0.10008724 0.73108238
-0.04011647 -0.098748207 0.72092569
-0.045290686 -0.099000439 0.72261333
-0.044790816 -0.10292355 0.71401381
-0.045047991 -0.073247105 0.72059363
-0.03972932 -0.077755213 0.71540207
-0.029950483 -0.083437063 0.72128534
-0.034761734 -0.082866326 0.71610105
-0.045147251 -0.083519869 0.72150922
-0.019867927 -0.093626931 0.72140956
-0.024720369 -0.092864312 0.71530789
-0.0098862769 -0.099989615 0.73086619
-0.014729082 -0.098126806 0.71690816
-0.020022316 -0.099449232 0.72669828
-0.025115285 -0.099442236 0.72654432
-0.009738761 -0.10354366 0.71927536
-0.014843957 -0.1039583 0.72216177
-0.024906192 -0.10366631 0.71991086
-0.0096845403 -0.082895584 0.71685916
-0.019771993 -0.083112776 0.71864516
-0.073802732 -0.10341918 0.75418276
0.010623487 -0.14636812 0.72723889
0.0054334654 -0.14482482 0.71944499
-0.0048360578 -0.14830559 0.7371099
0.031047771 -0.15099347 0.72369546
0.025797658 -0.15020649 0.71997309
0.016219946 -0.14539838 0.74973881
0.026393544 -0.14847019 0.73764974
0.04156065 -0.14687856 0.7291128
0.036414925 -0.14689586 0.72937888
0.042782392 -0.14589487 0.75167787
0.052255381 -0.14799637 0.73434824
0.042033859 -0.15375955 0.73689795
0.067698017 -0.1477236 0.73214251
0.056985289 -0.14681304 0.72810429
0.065636642 -0.15509172 0.76974171
-0.0046698344 -0.13316543 0.71250463
0.00034644181 -0.14115231 0.70082331
0.00034882399 -0.10723998 0.70971274
0.005315647 -0.11187707 0.70696849
0.00034952702 -0.11744274 0.71015644
-0.0046500736 -0.11760172 0.71112889
0.025487542 -0.13331947 0.71306229
0.03040353 -0.1428515 0.70902401
0.020113211 -0.14094074 0.69956309
0.02000259 -0.10576309 0.6995427
0.010641153 -0.12604888 0.73095614
0.005464301 -0.12521942 0.72608113
0.00035700068 -0.12505402 0.72511488
0.010608866 -0.13079149 0.7281093
0.0054912064 -0.13096794 0.72914904
0.00035733552 -0.13027617 0.7252295
-0.0047285585 -0.12975557 0.72225988
0.0054889666 -0.1360444 0.72823822
0.010459658 -0.13905792 0.71643227
0.005414071 -0.139248 0.7174688
-0.0047498629 -0.14055492 0.72435045
-0.0047998903 -0.12655181 0.7339741
0.010829272 -0.13874029 0.74293697
0.00036416049 -0.14316913 0.73811942
-0.0046660285 -0.10797076 0.71464425
0.00035393549 -0.11386772 0.71983474
-0.0046644039 -0.11294866 0.71389061
0.0054082153 -0.11887974 0.71902108
0.010768916 -0.10675277 0.74203843
0.010751259 -0.11177158 0.74030334
0.0055502756 -0.11162805 0.73936981
0.010677179 -0.11615951 0.7345826
0.010701427 -0.12159307 0.73574692
0.031307127 -0.13162404 0.73246032
0.025945265 -0.13059629 0.72675049
0.015795806 -0.1313059 0.73097342
0.031170845 -0.1361863 0.72859645
0.020903701 -0.13620792 0.72895181
0.015851855 -0.13693528 0.73301059
0.030910727 -0.14014222 0.72176057
0.026026888 -0.14127417 0.72784507
0.015484416 -0.14384875 0.71439707
0.031525467 -0.12734835 0.73826677
0.026334124 -0.12735951 0.73846412
0.021003351 -0.12653618 0.73369771
0.015864559 -0.12670979 0.73480928
0.021133225 -0.13251105 0.7377395
0.02117089 -0.14315061 0.73782557
0.025733553 -0.11430366 0.72235441
0.01558425 -0.11431836 0.72263622
0.030547971 -0.1183671 0.71544677
0.026103018 -0.1210933 0.73240948
0.026543936 -0.10743227 0.74660641
0.021033233 -0.10604471 0.73687136
0.015928889 -0.10646933 0.73996717
0.031766061 -0.11262037 0.74565685
0.026535105 -0.11263029 0.74585575
0.015860979 -0.11118187 0.73625624
0.031796258 -0.11796569 0.74585819
0.021074234 -0.11660732 0.73733008
0.021066587 -0.12174109 0.73651707
0.015849704 -0.12142836 0.73466927
-0.004545209 -0.085625768 0.69746149
0.00034894017 -0.10229076 0.71042752
0.00033767964 -0.065221332 0.68958944
0.0052844491 -0.071710519 0.70602548
-0.0046247221 -0.072205238 0.71100557
-0.0045222715 -0.075468354 0.69458598
0.00034696856 -0.081885725 0.70798004
-0.0046160957 -0.08199764 0.7089591
0.0054536294 -0.09439373 0.72760808
-0.0046768049 -0.093133681 0.71769291
0.0054883761 -0.10012448 0.73190248
0.00035619395 -0.099328637 0.72597563
-0.0046627382 -0.097867243 0.71505827
0.005428419 -0.10410397 0.72328049
-0.004699205 -0.10368555 0.7203148
0.010665965 -0.090274289 0.73612231
0.005579011 -0.091349855 0.74511307
0.00036212156 -0.090635136 0.73917615
0.010761508 -0.09628173 0.74243242
0.00036011235 -0.09527678 0.73457217
0.010659683 -0.10052033 0.73482054
0.010493202 -0.06853532 0.72536236
0.0053658313 -0.06780009 0.71745092
0.01036394 -0.072697811 0.71592253
0.00035238595 -0.07309594 0.71997601
0.0053997738 -0.078322016 0.72142935
0.00035230131 -0.078111328 0.71946013
0.010598393 -0.084582366 0.73175299
0.0053765373 -0.083009779 0.71789706
0.010643396 -0.079799779 0.73529547
0.015671691 -0.089435853 0.72908342
0.031194273 -0.084897757 0.73416275
0.021141138 -0.085811205 0.74246448
0.03122713 -0.090131678 0.73455817
0.02622295 -0.090616591 0.73872262
0.020969203 -0.09026546 0.73590654
0.032002766 -0.097642712 0.75275809
0.026284426 -0.09601333 0.74006975
0.021350885 -0.097154401 0.74915618
0.015876094 -0.095773727 0.73837411
0.03186927 -0.10248568 0.74910313
0.02648339 -0.10196367 0.74534047
0.021067593 -0.10104164 0.73856795
0.01601748 -0.10184406 0.74463969
0.030637871 -0.068241186 0.72181469
0.025903568 -0.069076173 0.73096281
0.020657264 -0.068620689 0.72614533
0.015457161 -0.068071939 0.72029585
0.031044377 -0.07426101 0.73127437
0.025725104 -0.073674262 0.72550166
0.020347692 -0.072591767 0.7147181
0.015600073 -0.073782764 0.72677839
0.0258225 -0.079046391 0.72796321
0.020730816 -0.079052165 0.728122
0.015470888 -0.078211136 0.72029257
0.015738649 -0.084691375 0.7326566
0.03140888 -0.080307372 0.73969221
0.059940968 -0.13666739 0.70224774
0.052000277 -0.12661836 0.73318845
0.046412539 -0.12547249 0.72663671
0.051160261 -0.12965341 0.72051686
0.041394252 -0.13090228 0.72802931
0.03650903 -0.13178365 0.73321283
0.051685687 -0.13611762 0.72746581
0.046806026 -0.13685732 0.73172802
0.041596342 -0.13669579 0.73104763
0.051527429 -0.14081776 0.72455961
0.045967009 -0.14454015 0.71706104
0.041958246 -0.12748653 0.73875034
0.047194257 -0.13278912 0.73854208
0.036829852 -0.138151 0.73917389
0.047093704 -0.14289071 0.73567951
0.036670506 -0.14274009 0.73527002
0.051696777 -0.11561186 0.72991693
0.046508446 -0.11547632 0.72926581
0.051267937 -0.11974399 0.72320205
0.035851441 -0.12433909 0.7203061
0.052347705 -0.1066708 0.74031562
0.047896158 -0.10836043 0.75251466
0.037296176 -0.10824859 0.75210714
0.052330356 -0.1118321 0.73957026
0.047202427 -0.11199517 0.74089694
0.042278044 -0.11274146 0.74613982
0.036803324 -0.11202372 0.74147004
0.042427819 -0.11839832 0.74831307
0.037078723 -0.11810648 0.74661058
0.046861086 -0.12151849 0.73437214
0.0416453 -0.12137514 0.73368859
0.036873236 -0.12266741 0.74184316
0.067189358 -0.12605073 0.72901976
0.066808701 -0.13044819 0.72421873
0.060890764 -0.12874335 0.71484202
0.056681886 -0.13067043 0.72604281
0.072352625 -0.13637467 0.72773391
0.066161647 -0.13424689 0.71645349
0.061684165 -0.1355314 0.72374976
0.056358695 -0.1350165 0.72121072
0.071655266 -0.14015302 0.71994126
0.067373306 -0.14186026 0.72921902
0.056710057 -0.14098108 0.72517031
0.073459588 -0.12801912 0.74032134
0.062797688 -0.12757243 0.73830467
0.072416872 -0.10561437 0.73170471
0.067106806 -0.10535818 0.73020869
0.056670755 -0.11528685 0.72757602
0.072723657 -0.1215679 0.7333166
0.067214601 -0.12095542 0.72986239
0.061756544 -0.12034083 0.72636837
0.057101086 -0.12132046 0.73267812
0.056328546 -0.12476747 0.7220009
0.062640578 -0.10649417 0.73854369
0.058363814 -0.10818657 0.75080186
0.073348023 -0.11218545 0.74081326
0.06797199 -0.11191714 0.7393254
0.057216696 -0.11122884 0.73525
0.073609114 -0.11781643 0.74298114
0.067859791 -0.11692444 0.73755997
0.063089803 -0.11771186 0.74292946
0.052751694 -0.086540006 0.74790072
0.041847542 -0.085665599 0.74061197
0.03637768 -0.085001305 0.73492479
0.053079896 -0.092349529 0.75224525
0.052516975 -0.096585333 0.74368
0.047864076 -0.097733483 0.75293148
0.05318566 -0.10309673 0.75289118
0.037163768 -0.10260773 0.74985772
0.046504647 -0.069321133 0.73295885
0.035826001 -0.068510257 0.72457218
0.052457653 -0.06522043 0.74500746
0.047317356 -0.065315671 0.74634206
0.052241087 -0.070138961 0.74156457
0.041712753 -0.069883063 0.73922408
0.052572124 -0.075804085 0.74603218
0.047605656 -0.076211035 0.75034583
0.042088024 -0.07572715 0.74568474
0.036588259 -0.075143069 0.73999053
0.052628078 -0.081110992 0.74648923
0.047717724 -0.081651494 0.75179297
0.042517409 -0.081768297 0.75309354
0.036868274 -0.0809329 0.74541962
0.072248548 -0.10023394 0.7304346
0.068340644 -0.086380057 0.74567103
0.057754561 -0.086188376 0.74455065
0.068055697 -0.091226906 0.7420972
0.063107371 -0.091602415 0.74551225
0.073321767 -0.096511655 0.74196285
0.068125136 -0.096532315 0.74244529
0.063663669 -0.097684428 0.75179005
0.057722498 -0.096569158 0.74330378
0.067749523 -0.10118366 0.73782033
0.062496319 -0.10107109 0.73727703
0.073429964 -0.065340653 0.7452758
0.068759501 -0.065866016 0.75171322
0.073319055 -0.070452988 0.74382114
0.067944862 -0.070284188 0.74232
0.063169599 -0.070758313 0.74772769
0.057042435 -0.069666989 0.73622602
0.073781222 -0.076140955 0.74827528
0.068018645 -0.07556469 0.742814
0.063073382 -0.075876176 0.74623543
0.068713561 -0.081594057 0.75020421
0.063140444 -0.081188031 0.74669105
0.032106772 -0.10853887 0.75432241
0.026816787 -0.087379359 0.75620532
0.042785767 -0.10879354 0.75578952
0.064259112 -0.11456967 0.75751692
0.06378109 -0.087296069 0.75404167
0.058868162 -0.093168028 0.7587952
0.058908898 -0.1038755 0.75844014
0.058486279 -0.066147082 0.75556034
0.058461092 -0.076680668 0.75458598
0.058748402 -0.082364507 0.7580111
-0.55373061 -0.047548033 0.95236933
-0.52783555 -0.047188897 0.95309305
-0.56257504 -0.011115461 0.95299345
-0.55288297 -0.018349316 0.95154351
-0.52655458 0.010685621 0.95146453
-0.52560538 -0.0037476104 0.94975597
-0.56250256 0.032757223 0.95254511
-0.45217222 -0.0036779006 0.95325261
-0.43540892 -0.045839895 0.95105678
-0.41823816 -0.010607722 0.94873977
-0.41199493 -0.017617954 0.95240879
-0.41941965 -0.017636182 0.9513948
-0.48836836 0.16402991 0.96780419
-0.49830535 0.16490369 0.97059572
-0.50378472 0.16429831 0.96449941
-0.5556165 0.22907063 0.97092748
-0.56495744 0.22981323 0.97131628
-0.55585867 0.22165176 0.97248489
-0.54511541 0.23529735 0.96714169
-0.49893749 0.19449237 0.96828389
-0.49137732 0.18706553 0.97125024
-0.50090736 0.18788636 0.97311723
-0.50019658 0.18025635 0.97262591
-0.52063191 0.24926011 0.96882194
-0.49235791 0.2315767 0.96698743
-0.50100541 0.23217505 0.96705472
-0.49257839 0.2243208 0.96855921
-0.49966747 0.21684378 0.96665913
-0.50477278 0.24135169 0.97326052
-0.47281057 0.17097788 0.96971565
-0.48224095 0.17174304 0.97176361
-0.47211221 0.16345423 0.96908402
-0.48109958 0.16403943 0.97025484
-0.47226214 0.15623274 0.97018397
-0.48038444 0.15650931 0.96957952
-0.4686847 0.23078673 0.97076839
-0.47770387 0.2316051 0.97191912
-0.48438725 0.22393638 0.96929359
-0.47641855 0.2163071 0.97147661
-0.46762872 0.23758148 0.96738911
-0.47833511 0.23927806 0.97205651
-0.45260134 0.23737271 0.97107214
-0.4329156 0.18405959 0.97118759
-0.44096172 0.18440351 0.97088808
-0.43346831 0.17706166 0.97333163
-0.43539152 0.21417226 0.9729144
-0.43456292 0.19926232 0.97306025
-0.41830885 0.20565228 0.97211647
-0.43579829 0.22891594 0.97165942
-0.43793765 0.25196216 0.97294486
-0.44247904 0.23587263 0.96703857
-0.42006019 0.22826681 0.97305715
-0.42500633 0.22703546 0.96565741
-0.4112604 0.24185841 0.96908224
-0.25083494 0.084604956 0.81334829
-0.25651112 0.084550008 0.81161475
-0.40438285 -0.059474204 0.95178014
-0.37274095 -0.04506341 0.95017207
-0.3815465 -0.04528822 0.95317394
-0.39601558 -0.024485748 0.95134562
-0.37248009 -0.017404946 0.95009506
-0.37246355 -0.024310598 0.94995219
-0.35088351 -0.010472057 0.95293421
-0.35818487 -0.017381566 0.95229083
-0.35782185 -0.024254417 0.9512108
-0.365491 -0.0243062 0.95154434
-0.3502025 0.010176728 0.95105678
-0.35054824 0.0033038328 0.95204306
-0.35820106 0.0033109491 0.95243531
-0.34952614 -0.0035686735 0.94922161
-0.36587712 -0.0035944649 0.95276624
-0.3805494 0.017181206 0.95124787
-0.35053289 0.017068971 0.95190364
-0.33495712 0.023822844 0.9498567
-0.34355748 0.023945142 0.95319641
-0.26941538 -0.045092423 0.83479476
-0.27149463 -0.051483046 0.84112799
-0.27387094 -0.058029167 0.84836572
-0.27262363 -0.063832618 0.84414512
-0.26888463 -0.027050028 0.83362901
-0.27155575 -0.039406691 0.84174913
-0.3238222 0.051612847 0.95995456
-0.3222104 0.058221716 0.9548406
-0.25116393 0.10811809 0.81261641
-0.4013004 0.18282022 0.9726581
-0.37370536 0.19401897 0.96064824
-0.37017724 0.18875976 0.97279143
-0.38527393 0.18917216 0.97128832
-0.38696507 0.22587912 0.97056448
-0.35445541 0.18798277 0.97221327
-0.34643531 0.18040411 0.9721632
-0.34817386 0.22400397 0.97125971
-0.35536546 0.22405179 0.96976858
-0.36390767 0.22493254 0.97189552
-0.35618988 0.2174378 0.97312349
-0.33268589 0.21607216 0.97188354
-0.33378074 0.23812018 0.97184378
-0.25024414 0.12521851 0.89873022
-0.25652021 0.12514436 0.89699924
-0.2688325 0.12794669 0.91618085
-0.28029552 0.13022079 0.93143308
-0.31174073 0.24468067 0.97312123
-0.31101739 0.23703308 0.97198415
-0.53215516 0.28869772 0.96703613
-0.50853443 0.28806719 0.97268593
-0.51685554 0.2885333 0.97172201
-0.52519041 0.28899369 0.97069013
-0.55827153 0.34814465 0.97017258
-0.54784358 0.33877492 0.96970308
-0.5302912 0.35246584 0.9673512
-0.53915471 0.35330483 0.96700168
-0.544788 0.3520332 0.96074688
-0.52838254 0.34364131 0.96555799
-0.53814089 0.34505355 0.96690667
-0.53009051 0.33717188 0.97043985
-0.53849554 0.33768904 0.96926868
-0.54867911 0.4059591 0.9728052
-0.54727226 0.39720261 0.9722904
-0.56432033 0.39834377 0.96952331
-0.5312261 0.41215685 0.97250211
-0.52279258 0.35252288 0.97015333
-0.52269697 0.34487537 0.97172207
-0.52125055 0.33635902 0.97069609
-0.4876202 0.34906191 0.9705506
-0.49499014 0.34145534 0.96954119
-0.49039426 0.37370569 0.97071683
-0.49074444 0.36641446 0.97327548
-0.49346143 0.3912428 0.97303754
-0.50095552 0.38356185 0.972278
-0.50329125 0.37959278 0.95955038
-0.50046599 0.3755962 0.97321576
-0.50365067 0.40854299 0.97161055
-0.46823928 0.32351887 0.97121477
-0.48518971 0.3249045 0.97067517
-0.46770802 0.31571963 0.97168642
-0.4751215 0.31570721 0.96929926
-0.48210311 0.31541258 0.96599472
-0.44966573 0.31350404 0.96930557
-0.45785543 0.31405941 0.96879256
-0.45033786 0.30658162 0.97231835
-0.46428776 0.30603299 0.9660095
-0.4330712 0.31953061 0.96795684
-0.42508271 0.30437481 0.97169143
-0.42342114 0.31780344 0.96475887
-0.47051007 0.34004131 0.97268319
-0.4544791 0.34669605 0.97324288
-0.45591456 0.37023884 0.97099197
-0.46673459 0.38797832 0.9719767
-0.47588417 0.38929793 0.97297096
-0.48299938 0.38893801 0.96965581
-0.46927029 0.41281843 0.97130686
-0.46883595 0.40486595 0.97244233
-0.47760522 0.40588477 0.97255272
-0.47674924 0.39758146 0.97279447
-0.44972977 0.38631886 0.97232717
-0.44810927 0.37744963 0.97067249
-0.42743251 0.33557105 0.97078937
-0.42066506 0.35822663 0.96915859
-0.43162596 0.37611735 0.97157317
-0.44308397 0.40210643 0.97253329
-0.54869449 0.4523848 0.95985967
-0.55859762 0.45414695 0.96086234
-0.54736096 0.43585148 0.96196049
-0.56232828 0.44154459 0.97191262
-0.51007146 0.45243412 0.97330177
-0.524939 0.45191279 0.96695316
-0.51472569 0.44205043 0.96708912
-0.49340865 0.4744997 0.96897751
-0.49344254 0.46681374 0.97141469
-0.50029141 0.45829868 0.96952987
-0.55369306 0.51114929 0.95167112
-0.56180286 0.51142573 0.94938254
-0.54866314 0.54513252 0.94870323
-0.54835504 0.53698492 0.95088667
-0.52422154 0.49759758 0.95126301
-0.51198053 0.53178263 0.95215994
-0.51740009 0.53711277 0.94251603
-0.48562658 0.42143849 0.96685892
-0.46135882 0.42766368 0.96871173
-0.44815239 0.45233506 0.97092074
-0.45497537 0.43637553 0.97142059
-0.47877643 0.4907594 0.9706676
-0.47802606 0.48227146 0.97156978
-0.48570114 0.48222798 0.96905488
-0.43150192 0.42070138 0.95934731
-0.42451724 0.48182294 0.9662112
-0.45803726 0.5233838 0.95142591
-0.46447849 0.52203333 0.94660938
-0.45169887 0.5095697 0.96173257
-0.46011487 0.51040274 0.96103191
-0.42943665 0.51044077 0.97006154
-0.44143319 0.50658512 0.95825142
-0.44522569 0.50325185 0.96916884
-0.44613633 0.52738512 0.96339071
-0.39120138 0.29363677 0.96986085
-0.37839785 0.32411203 0.97202212
-0.34389848 0.27609459 0.97264326
-0.36313596 0.33077154 0.97218871
-0.32942367 0.29750699 0.97135907
-0.393273 0.33894551 0.96569753
-0.38419065 0.33737355 0.96306443
-0.37454382 0.37123448 0.97267979
-0.38113654 0.35581547 0.97243559
-0.39021695 0.39427176 0.96562469
-0.39046288 0.37976629 0.97009093
-0.35660654 0.34603885 0.97269148
-0.30669913 0.31062844 0.96916825
-0.31422782 0.31100905 0.96886379
-0.32176897 0.31138471 0.96850312
-0.30707827 0.29670644 0.97333509
-0.32440823 0.33559975 0.97181642
-0.40408787 0.43068743 0.97137326
-0.39204952 0.4183442 0.96414608
-0.40055373 0.41949338 0.96485662
-0.38971612 0.4463762 0.97251385
-0.39760739 0.44681066 0.9715066
-0.38313714 0.47002572 0.96995819
-0.37460288 0.46125746 0.97152358
-0.36982197 0.49490997 0.97110474
-0.35761157 0.45124862 0.97198927
-0.32654461 0.49416545 0.96098775
-0.337008 0.49114808 0.97065449
-0.35395747 0.5131017 0.94027859
-0.36303514 0.50808597 0.94552153
-0.34659815 0.50921935 0.96989667
-0.33350265 0.53506184 0.97137535
-0.34911987 0.53572762 0.96917468
-0.34232822 0.53699744 0.97324616
-0.32547739 0.45550534 0.96962202
-0.2897636 0.48738045 0.97243506
-0.30458441 0.47983396 0.97167087
-0.24811791 0.46420652 0.96640742
-0.26436311 0.46706855 0.96991366
-0.0089471489 -0.048768874 0.66278994
-0.013602417 -0.048838686 0.6637103
-0.018270664 -0.048907701 0.66459864
-0.018481713 -0.054175373 0.67222166
-0.0089832963 -0.058275018 0.66505009
-0.013797056 -0.058955297 0.67294222
-0.018353989 -0.044460528 0.66790915
-0.0043342737 -0.06301 0.66567779
-0.088211015 -0.054812733 0.74352717
-0.088468075 -0.044521421 0.74618733
-0.090067863 -0.050646529 0.75974303
-0.08975666 -0.034566633 0.75763935
-0.090246454 -0.0081024403 0.76233959
-0.12767503 0.052784983 0.79287779
-0.12769306 0.047223616 0.79321885
-0.17105183 0.06196418 0.83843303
-0.086559489 0.11873667 0.8258639
-0.2284615 0.12050992 0.8665545
-0.20926233 0.11670286 0.84070206
-0.21828367 0.11834585 0.85175079
-0.23783277 0.12214562 0.87742698
-0.22916149 0.25386611 0.96570045
-0.13234796 0.12950246 0.89904094
-0.14055663 0.13126311 0.91084504
-0.10922401 0.12475783 0.86715859
-0.11618111 0.12569411 0.8732664
-0.094389096 0.12134896 0.84395683
-0.1243082 0.12773868 0.88716877
-0.14831249 0.13246578 0.91866708
-0.15537237 0.13297227 0.92154121
-0.16450351 0.13513967 0.93607301
-0.092573382 0.14274776 0.94870275
-0.13048452 0.24456371 0.96932912
-0.13080905 0.23826185 0.97290426
-0.1171546 0.25243947 0.97317374
-0.12374694 0.24487124 0.97116011
-0.069409512 -0.052418362 0.71141404
-0.078333154 -0.061565019 0.70070243
-0.069453962 -0.027522299 0.71277767
-0.049456578 -0.047414541 0.7123822
-0.063658446 -0.04686993 0.70326531
-0.049042769 -0.051956668 0.7060709
-0.054195952 -0.05216296 0.70870346
-0.064264499 -0.052286334 0.70988345
-0.058645837 -0.056630325 0.7019825
-0.054324843 -0.062227525 0.70991135
-0.049412765 -0.027468104 0.71240765
-0.054230772 -0.027388262 0.71006042
-0.049204934 -0.032307755 0.70921302
-0.063059285 -0.036674839 0.69687414
-0.049463727 -0.042440161 0.71268868
-0.054286934 -0.042316973 0.7103433
-0.059161607 -0.042251188 0.70896095
-0.069894776 -0.047767267 0.71672153
-0.074691877 -0.047626682 0.71424228
-0.076102443 -0.053623408 0.72779179
-0.080746263 -0.053323943 0.72328907
-0.0708194 -0.058567066 0.72592551
-0.070047565 -0.062957309 0.71757394
-0.083143964 -0.049688023 0.74545956
-0.077511325 -0.059807781 0.74129283
-0.083116174 -0.060106587 0.74471045
-0.076785542 -0.064390801 0.73392886
-0.076252788 -0.028192574 0.7301808
-0.069637015 -0.032593906 0.71456182
-0.07114701 -0.03840813 0.73022926
-0.07471218 -0.037631299 0.71482396
-0.070094541 -0.042871878 0.71901804
-0.083509162 -0.028937245 0.749511
-0.077262059 -0.033740681 0.73990935
-0.082742058 -0.033865534 0.74234402
-0.082841225 -0.039106451 0.74308801
-0.077446796 -0.044196013 0.74136466
-0.081854887 -0.043779243 0.73387176
-0.054651383 -0.047601182 0.71501315
-0.059559345 -0.047527641 0.71362865
-0.06036222 -0.053228032 0.72322857
-0.049642831 -0.057591662 0.71465129
-0.055005156 -0.057974305 0.71926618
-0.06548547 -0.058344342 0.72341228
-0.049971394 -0.063005202 0.71921158
-0.060908511 -0.063920729 0.72938478
-0.065912932 -0.063822873 0.72795939
-0.059913211 -0.027721766 0.71863735
-0.064658061 -0.027603425 0.71522534
-0.055268336 -0.032968834 0.72380394
-0.059582282 -0.032562975 0.71444839
-0.065092251 -0.032822985 0.71999562
-0.049943816 -0.037822489 0.71993607
-0.060713451 -0.038270324 0.72814435
-0.065604948 -0.04322923 0.72544563
-0.056081366 -0.03858478 0.73451674
-0.074428685 -0.022532981 0.71245754
-0.078743525 -0.022342779 0.70597112
-0.059357557 -0.0075627249 0.71214354
-0.054164145 -0.017443513 0.7093696
-0.059190147 -0.017464302 0.70997953
-0.049213663 -0.022401366 0.70958626
-0.069649309 -0.022599759 0.7149384
-0.072788887 -0.013167823 0.74802476
-0.073259853 -0.018512161 0.75289309
-0.067306176 -0.023528516 0.74526572
-0.055658724 -0.0077402634 0.72948331
-0.066082418 -0.0077683735 0.73164272
-0.050031658 -0.01269684 0.72179514
-0.059680875 -0.012606506 0.71606112
-0.064934887 -0.012655507 0.71862471
-0.049893834 -0.017686417 0.71969652
-0.064667434 -0.017604729 0.71553379
-0.055427134 -0.022921355 0.72617835
-0.059592836 -0.022578327 0.71482462
-0.050913434 -0.0077933804 0.73483402
-0.056103956 -0.012935206 0.73539561
-0.028488895 -0.055344343 0.68684667
-0.028781483 -0.046205658 0.69451588
-0.033914957 -0.046590224 0.70028371
-0.039074488 -0.046909075 0.70501775
-0.028938519 -0.05133779 0.6981706
-0.034003958 -0.051619265 0.70194173
-0.038852062 -0.051541433 0.70069706
-0.044293113 -0.052179549 0.70937544
-0.033667415 -0.055966593 0.69460225
-0.038521048 -0.055959933 0.69435608
-0.044346124 -0.057207972 0.70999759
-0.028806623 -0.060819354 0.694417
-0.034133039 -0.061666016 0.70415628
-0.039053798 -0.061658688 0.70390666
-0.044094324 -0.061820909 0.70561242
-0.028997634 -0.02699272 0.70050478
-0.034498468 -0.027479282 0.71326649
-0.028833061 -0.031701762 0.69631106
-0.034211602 -0.032187518 0.70707464
-0.039035529 -0.032094765 0.70482934
-0.028991543 -0.036764968 0.70006961
-0.033876996 -0.036761165 0.69985509
-0.039301421 -0.037269421 0.70957959
-0.028826084 -0.041416209 0.69581211
-0.03382539 -0.041586176 0.69859058
-0.03843151 -0.041290831 0.69335878
-0.044124052 -0.042098183 0.70703053
-0.0092381034 -0.045568228 0.68505859
-0.013924247 -0.045241896 0.67999077
-0.023493107 -0.045365978 0.68173057
-0.023858976 -0.050912026 0.69237024
-0.0092481347 -0.055201259 0.68536836
-0.013959482 -0.05488503 0.68130213
-0.023317179 -0.054485559 0.67606485
-0.018638827 -0.059378631 0.67781198
-0.023547832 -0.059800956 0.68264759
-0.018661715 -0.064200066 0.67838609
-0.023475748 -0.064379714 0.68023288
-0.02347086 -0.026279725 0.68171012
-0.0092274752 -0.035953652 0.68461651
-0.0092920912 -0.041019972 0.68934608
-0.009361078 -0.026773624 0.69503415
-0.014230805 -0.026810227 0.69595277
-0.019113481 -0.026846396 0.69683796
-0.0093601681 -0.031620845 0.69483483
-0.01422942 -0.031664077 0.69575316
-0.024309151 -0.032149199 0.70647573
-0.01428776 -0.036670268 0.69851613
-0.01905586 -0.0364631 0.69440866
-0.014305896 -0.041599371 0.69924736
-0.019080199 -0.041364677 0.6951412
-0.024000734 -0.041477919 0.69699007
-0.044726186 -0.047681205 0.71668679
-0.03963409 -0.027588906 0.71600759
-0.045661014 -0.028224934 0.73267657
-0.044621713 -0.032579329 0.71551484
-0.044616681 -0.037571918 0.71527553
-0.01972813 -0.0327296 0.71960717
-0.024608972 -0.037537392 0.71522254
-0.034411754 -0.0075477283 0.71174705
-0.039371379 -0.012511443 0.71142691
-0.029446794 -0.01747936 0.71179414
-0.034314431 -0.017429534 0.70957917
-0.044328071 -0.017473087 0.71103913
-0.029080868 -0.022166176 0.70266962
-0.039366916 -0.022438629 0.71118844
-0.019466396 -0.0075289714 0.71029991
-0.014573422 -0.012534119 0.7133466
-0.019546201 -0.012533423 0.71323019
-0.02441714 -0.012480954 0.71008193
-0.019518435 -0.017482141 0.71212834
-0.024315054 -0.017360833 0.70698249
-0.0093750022 -0.021955939 0.6961996
-0.01946355 -0.022385541 0.70999378
-0.024380734 -0.022353109 0.70884508
-0.02965145 -0.007600355 0.71696055
-0.040346164 -0.0077334223 0.72946811
-0.04530599 -0.007711642 0.72717923
-0.029812284 -0.012668948 0.72088784
-0.035261448 -0.012822327 0.72965586
-0.04506094 -0.012715948 0.72311729
-0.039639857 -0.017595481 0.71631587
-0.034690302 -0.02262627 0.71743059
-0.04505584 -0.022805402 0.72287494
-0.009626586 -0.0075815413 0.71549726
-0.01485378 -0.0077056969 0.72741157
-0.024552468 -0.0075699124 0.71414775
-0.0096526099 -0.012603385 0.71742809
-0.0096389716 -0.017579861 0.7163254
-0.014812589 -0.017795309 0.72523814
-0.014591753 -0.022510121 0.71410698
-0.073455572 -0.0080152368 0.75506485
-0.080335081 -0.013559555 0.77038783
-0.085803211 -0.013573374 0.77081543
-0.031917296 -0.0027988022 0.77294916
0.0099787414 -0.04589257 0.69003838
0.0051363343 -0.045699 0.68709648
0.00033697503 -0.045829248 0.68911088
-0.0044579678 -0.045634188 0.68610317
0.0099771339 -0.050705053 0.68970883
-0.0044699297 -0.050563008 0.68777025
-0.0044501205 -0.055124 0.6844182
-0.0045063035 -0.060665425 0.69299275
0.0052741063 -0.051853862 0.70571887
0.0003393068 -0.050993681 0.69376892
0.010144681 -0.056457363 0.70130819
0.0053242259 -0.057322551 0.71232641
0.00034020105 -0.055988155 0.69539827
0.0052648634 -0.061603863 0.70394784
0.0003439518 -0.061519101 0.70297062
0.00033475074 -0.026397852 0.6851027
-0.0044474406 -0.026397668 0.68508869
0.0099673616 -0.036209937 0.68960035
0.0051377439 -0.036108274 0.68765467
0.00033611266 -0.036108602 0.68767327
-0.0044084466 -0.03564674 0.67867118
0.0051662675 -0.041137036 0.69138503
0.00033797868 -0.041137412 0.69140375
0.0052191182 -0.026924806 0.69907379
0.010137926 -0.031932019 0.70181793
0.0052259099 -0.031843878 0.69987243
-0.004561197 -0.031977378 0.70287406
0.010050771 -0.041368399 0.69532603
-0.0045156954 -0.041369531 0.69538277
0.014735985 -0.045695957 0.68696094
0.019559456 -0.050556626 0.68751276
0.014775466 -0.050631244 0.68862706
0.030039854 -0.047113564 0.70844668
0.019951085 -0.046666909 0.70180655
0.030117758 -0.052197494 0.71010143
0.025158267 -0.052202161 0.71029001
0.014898402 -0.055905402 0.69424546
0.015251179 -0.062197 0.71078181
0.015075028 -0.036926452 0.70349437
0.029961441 -0.042054597 0.70675623
0.019870725 -0.041596696 0.69911444
0.015198691 -0.04218008 0.70921427
0.010438965 -0.063138098 0.72182775
0.010378969 -0.027677247 0.71900535
0.00034856537 -0.032466821 0.71387762
0.02526601 -0.047442283 0.71362114
0.030319253 -0.057541639 0.71470863
0.02549934 -0.057939321 0.7198801
0.020665556 -0.058493167 0.72701263
0.03076832 -0.063462824 0.72524959
0.025770787 -0.063639104 0.72743374
0.020495171 -0.063046567 0.72062045
0.025796954 -0.028086614 0.72962469
0.020654798 -0.028013378 0.72778547
0.015434211 -0.027751409 0.72091562
0.030837949 -0.033124115 0.72822416
0.020652793 -0.033085056 0.72757697
0.015432712 -0.032775655 0.72070909
0.030875852 -0.03825146 0.72897857
0.025618669 -0.03799849 0.72418153
0.020400651 -0.037693582 0.71834928
0.025373382 -0.042639285 0.71692103
0.031379104 -0.028535848 0.74141246
0.026001912 -0.033438351 0.7354061
-0.0044604908 -0.021678908 0.68725157
0.010240085 -0.0075192791 0.70948869
-0.0046197902 -0.0075506023 0.71254623
0.00034435169 -0.017316204 0.70539194
0.0052341414 -0.022110585 0.70123994
0.00034003117 -0.021956597 0.69626129
0.0053663277 -0.0076231863 0.71954089
0.00035632076 -0.007737346 0.73055983
0.0053807544 -0.012672428 0.72147143
-0.00465114 -0.017604282 0.71737373
0.010393932 -0.022695925 0.72017652
0.010719961 -0.013050378 0.74341208
0.00036156303 -0.01301644 0.74148804
-0.0047909725 -0.012981961 0.73947322
0.010648821 -0.018108135 0.7383073
0.0054973005 -0.018084578 0.73736274
0.025699049 -0.0077046324 0.72711551
0.015605292 -0.0077263862 0.72939646
0.020573176 -0.022847844 0.72496188
0.015665842 -0.02306501 0.7320801
0.03109638 -0.0077868882 0.73491549
0.020992709 -0.007840015 0.74026781
0.031426612 -0.013046948 0.74283689
0.026251605 -0.013048121 0.74303365
0.02113086 -0.013083469 0.74519414
0.015877079 -0.013032642 0.74232161
0.031300873 -0.018151399 0.7397337
