# .PCD v0.7 - Point Cloud Data file format
VERSION 0.7
FIELDS x y z
SIZE 4 4 4
TYPE F F F
COUNT 1 1 1
WIDTH 1465
HEIGHT 1
VIEWPOINT 0 0 0 1 0 0 0
POINTS 1465
DATA ascii
1.2532123 -0.49380133 1.8451986
-0.88781649 -1.0298849 1.8532467
-0.40662551 -0.48011518 1.8419274
0.013850096 -0.4856599 1.8400424
0.3954739 -0.48030284 1.8442854
0.51904273 -0.48516616 1.843446
0.7138803 -1.0259393 1.8579199
0.81059211 -0.4874256 1.8415903
1.1787765 -0.48738849 1.8453723
-0.80801177 -0.47331685 1.8429995
-0.63007045 -0.47688255 1.8436304
-0.4897337 -0.47103542 1.8475481
-0.47624847 -0.4708139 1.8489717
-0.2859413 -0.4761776 1.8413005
-0.27369499 -0.4775604 1.8480043
-0.25975958 -0.47598687 1.8431095
-0.24616104 -0.474897 1.8400346
-0.11564643 -0.4729459 1.8408084
0.065616794 -0.47264799 1.8412603
0.078880079 -0.47457999 1.8485142
0.2217416 -0.47439975 1.8401214
0.34256709 -0.47988299 1.849619
0.61935741 -1.0140953 1.856256
1.2320133 -0.47656798 1.8441662
-0.88612431 -0.46461573 1.8445623
-0.85263509 -0.46149403 1.8406368
-0.82300055 -0.46031997 1.84417
-0.76140118 -0.46993682 1.8412497
-0.70365441 -0.4677479 1.8468857
-0.36711755 -0.46688199 1.8492969
-0.21982296 -0.46119967 1.8415998
-0.94909728 -0.4543595 1.8434352
-0.90128058 -0.45140374 1.8450795
-0.86727566 -0.44817731 1.8405038
-0.8368032 -0.44662458 1.8424705
-1.2253984 -0.43099913 1.8449761
-1.1021068 -0.43723252 1.8484318
-1.0675558 -0.43482983 1.8490332
0.41200817 0.64287603 1.8255258
0.67744863 -0.97177243 1.8597655
-1.1535337 -0.42602667 1.847309
-1.132766 -0.42365706 1.8426754
-1.1171745 -0.42318729 1.8462597
-0.98146623 -0.42834759 1.8466274
0.23743357 0.65015018 1.8258005
-1.2232244 -0.41566014 1.8438053
-1.2827295 -0.40608203 1.849996
-1.2226512 -0.40089789 1.8449894
0.5064162 0.17472465 1.8335561
0.5057832 0.18745182 1.830399
0.30731434 0.75236738 1.8207822
-0.06270846 0.22234154 1.8392678
-0.23014067 -0.23771358 1.8464293
-0.37439269 0.31680378 1.8388355
0.48433587 -0.22890648 1.8491697
-0.37327453 0.32876033 1.8318009
0.48144084 -0.18857622 1.8409357
0.1288773 0.3772893 1.8320694
-0.37621558 0.42238101 1.8340356
1.2587875 0.97365463 1.8289284
0.1427227 0.45743468 1.8335142
-0.38581541 -0.071156025 1.8467202
-0.38604832 -0.058300599 1.8481407
-0.38607243 -0.045405068 1.8484945
-0.94938058 -1.0789719 1.8628229
1.2827557 -0.51447344 1.8579497
0.8641606 -0.50844437 1.8536512
0.95929813 -0.50057685 1.8517193
0.99372798 -0.50374222 1.8537506
1.2050049 -0.506845 1.8550532
0.68200451 -0.49743965 1.858219
0.83388096 -0.49308226 1.859063
0.86501783 -0.49501258 1.8579899
1.0251924 -0.49104539 1.851804
-0.42299932 -0.48380625 1.8542341
0.4115639 -0.48375642 1.8557415
0.43941101 -0.48525217 1.8574864
0.47926113 -0.48524025 1.8508849
0.78634417 -0.4894155 1.8570465
-0.78189719 -0.47411007 1.8539362
-0.75310826 -0.4732804 1.8581821
-0.64687186 -0.47938424 1.8502825
-0.5472694 -0.47493291 1.8530087
-0.51983923 -0.47430485 1.8556434
-0.50601256 -0.47386146 1.8563432
0.053172927 -0.47711933 1.8591011
0.15737164 -0.47615677 1.8514149
0.24976939 -0.47832087 1.8532491
0.26373491 -0.4799003 1.8582177
-0.79574448 -0.46044108 1.8526226
-0.69332123 -0.46992832 1.8589749
-0.66348827 -0.4680894 1.8582165
-0.6475203 -0.46635509 1.8544446
-0.43538764 -0.46963155 1.850776
-0.3950741 -0.4688617 1.8536035
-0.38165376 -0.46859103 1.8543561
-0.28757304 -0.46578166 1.8541061
0.76108313 -1.001525 1.865788
-0.87101758 -0.99798244 1.8636317
-0.77965045 -0.45905286 1.8508507
-0.76732028 -0.45987079 1.8579698
-0.67689645 -0.45442757 1.8567832
-1.0028319 -0.44564021 1.8531883
-0.82773733 -0.4491576 1.8571184
0.60220337 -0.98081708 1.8606995
-1.0520449 -0.43430814 1.8520975
-1.0389225 -0.4347719 1.8593221
0.66530186 -0.97506356 1.8694873
-1.2872099 -0.42230785 1.8544203
-1.0874993 -0.42279699 1.8555926
-1.2112125 -0.4165414 1.8538815
-1.1738808 -0.41367942 1.8529947
-1.0879593 -0.40864736 1.858467
-1.0694485 -0.4070555 1.8565567
-1.2877105 -0.39284575 1.8592567
-1.1727952 -0.39880538 1.853308
-1.1581206 -0.39874235 1.8588685
-1.2465497 -0.38924402 1.8547773
-0.97942626 -0.37143403 1.8507082
-0.94787747 -0.35609937 1.8551214
-0.96393973 -0.34289566 1.8562119
-0.050123241 0.24844801 1.8423905
0.36556098 0.78973067 1.8318832
0.5256775 0.26867673 1.846235
0.32628113 0.81983733 1.8360881
0.77611947 0.81008446 1.8362552
0.35666648 0.88215786 1.8330662
0.11700902 0.36741093 1.8491466
0.40257871 0.93450332 1.8364646
1.2143852 0.93243933 1.8301971
0.14324768 0.44617712 1.8424112
1.3657548 0.99572897 1.8375169
0.47735459 0.46954647 1.8458208
0.50581557 0.47140363 1.8484865
1.3896172 1.0174012 1.8365448
1.3513035 1.0280393 1.8358855
-0.14283787 0.55514663 1.8421643
-1.3847765 1.1068017 1.8356411
0.70086575 -0.50118691 1.8689522
0.8362124 -0.50838149 1.8618282
0.95139152 -0.50385308 1.8687139
0.98143631 -0.50471431 1.8622926
1.1197951 -0.50156116 1.864632
1.328364 -0.5055837 1.8698467
0.58256567 -0.49397025 1.8665062
0.59600544 -0.49389875 1.8633934
0.66821378 -0.49731338 1.8610271
0.806346 -0.49322212 1.8676791
0.99606079 -0.49070954 1.8606244
1.0691984 -0.49829525 1.8688096
1.2268199 -0.49504036 1.8623797
-0.3300758 -0.48352861 1.865597
-0.31646937 -0.48296949 1.8649396
0.19870123 -0.48152408 1.8699615
0.23832074 -0.48165321 1.8674109
0.27834946 -0.48245481 1.8669198
0.29116836 -0.48180643 1.8630579
0.30441302 -0.48188829 1.8619813
0.31781924 -0.48220849 1.8617682
0.37231722 -0.48439702 1.8637795
0.73576593 -1.0215786 1.8783004
0.75254059 -1.02441 1.879802
-0.41140813 -0.47246084 1.8660389
-0.090749852 -0.47823712 1.8625386
-0.064704262 -0.47931015 1.8674732
-0.051556628 -0.47909606 1.8669013
0.04023489 -0.47862494 1.8652331
0.13222274 -0.47952089 1.8659539
0.145255 -0.47919726 1.8640403
1.3240353 -0.47386843 1.868633
-0.75384247 -0.46001819 1.8622925
-0.62165666 -0.4672237 1.864068
-0.60702974 -0.46638474 1.8636529
-0.59361255 -0.46645808 1.8668392
-0.57846564 -0.46514401 1.86435
-0.56506318 -0.4652034 1.8673346
-0.53529149 -0.46276635 1.8627266
-0.49394083 -0.46170688 1.865783
-0.24897391 -0.46717125 1.8634472
0.22496983 -0.46812707 1.8693466
0.25119057 -0.46787035 1.8660955
0.35812223 -0.46991134 1.8628684
0.60761172 -1.0040687 1.8725575
0.65466839 -1.009819 1.8738524
0.71629244 -1.000211 1.8744488
0.74703306 -1.0022851 1.871008
-0.92639506 -0.45694473 1.8633573
-0.73998868 -0.45993727 1.8656112
-0.72367465 -0.45829535 1.8624595
-0.20925781 -0.45345753 1.8664598
0.6837936 -0.99540126 1.872372
-0.90574241 -0.98883933 1.8704484
0.56050521 -0.98300022 1.873607
-1.0234097 -0.43423414 1.8621507
-1.0055977 -0.43269193 1.8605355
0.40272877 0.64929473 1.8458816
0.63754261 -0.97678405 1.8793447
0.92263252 -0.97391456 1.8700271
0.49826172 0.11098663 1.8572714
-0.97288388 -0.4166477 1.864108
0.41646513 0.66323453 1.8422685
-1.2165266 -0.40369961 1.8641515
-1.0412397 -0.40718707 1.8677142
-1.0242863 -0.40612596 1.8679543
0.49914464 0.13740575 1.8594332
-1.1424063 -0.39831519 1.8626333
-0.063064367 0.14685172 1.8547833
-0.03750515 0.1469485 1.8564664
-1.1953323 -0.38691816 1.86198
-0.96962398 -0.38711807 1.861798
-0.063018665 0.15952797 1.8527422
-0.062971979 0.17218302 1.850615
-0.98574698 -0.35973483 1.8645742
-0.063159361 0.1855066 1.8553644
-0.063009962 0.19784874 1.8500797
-0.063195273 0.21124911 1.8546451
-0.9491663 -0.30069271 1.8641731
0.52879661 0.25707412 1.8585217
-0.96411616 -0.27302396 1.8641845
-0.25876957 -0.24046217 1.86572
0.34274989 0.85420883 1.8420657
0.50134766 -0.21755353 1.8626992
0.33176747 0.90253997 1.8458838
0.37430474 0.91923839 1.8420534
0.13045323 0.39485753 1.8528785
0.41959831 0.9416194 1.8485181
0.11776982 0.42173812 1.8540028
0.13107556 0.42277405 1.858021
0.54884064 0.44741142 1.8561229
0.54856634 0.46054468 1.8530149
1.3757775 1.0188369 1.8460641
0.30394036 0.49378783 1.8568697
0.48496607 -0.0068028304 1.8609276
-0.050569784 0.019044125 1.8698256
0.64500201 -0.50043494 1.8791991
1.0887848 -0.500664 1.8723445
0.57051575 -0.49525166 1.8741666
0.62835902 -0.49810436 1.8734518
0.65665388 -0.4988766 1.8701481
0.8586632 -0.49942216 1.8789589
0.88767821 -0.49992594 1.8722243
0.98689395 -0.49323264 1.8752302
1.3295885 -0.49095282 1.8740979
-0.17064978 -0.48198986 1.8736246
-0.13105734 -0.48199525 1.8757478
0.1857468 -0.48212317 1.8732023
0.57137811 -0.48241857 1.8793739
0.6425252 -0.4848628 1.8743052
0.65604037 -0.48476288 1.8707708
0.67377418 -0.48772076 1.8790441
0.74573445 -0.48989251 1.8701454
0.95143521 -0.48969051 1.8712732
1.1218507 -0.48792568 1.8705703
1.236506 -0.48406366 1.8796808
1.3078666 -0.48847839 1.8712062
-0.68351948 -0.47256345 1.8728409
-0.45384079 -0.47510824 1.870418
-0.31744587 -0.47119415 1.8729824
-0.30382481 -0.47064349 1.8722296
-0.27779034 -0.47143388 1.8781216
0.2128192 -0.4704006 1.8795214
0.23930342 -0.47039607 1.8773986
0.27949411 -0.47117376 1.8768946
0.33259737 -0.47123489 1.8714081
-0.6388182 -0.46989137 1.8717464
-0.55438191 -0.46756071 1.879564
-0.2369751 -0.46945643 1.8737729
-0.15756813 -0.46913821 1.8779912
-0.063351378 0.070418999 1.8662173
0.13256742 -0.46760631 1.8730571
0.14563376 -0.46729097 1.8711392
0.17241099 -0.46855688 1.874773
0.26509529 -0.46916714 1.8701046
0.7348929 -1.0056893 1.8811449
-0.8995598 -0.45758927 1.8750638
-0.71191967 -0.45953292 1.8710314
-0.69704288 -0.45876446 1.8712997
-0.063338153 0.09609928 1.8650812
0.59332269 -0.98988241 1.8810444
0.60855079 -0.97668999 1.8853962
-1.0806905 -0.42575711 1.8741401
-1.046029 -0.42340288 1.8742969
-1.0299555 -0.42269263 1.8763051
0.12036297 0.65662187 1.8518572
-1.1721215 -0.41822726 1.879463
-1.1160403 -0.41374585 1.8762906
-1.0630586 -0.41009638 1.8758937
0.40624118 0.6684674 1.8589212
-1.2054353 -0.40490142 1.8758484
-1.1327653 -0.40002173 1.8763998
-0.99190897 -0.40453655 1.8706087
-0.96056658 -0.40328804 1.8744767
1.319616 -0.41235185 1.8712639
0.12051664 0.67074758 1.8510785
-1.0987692 -0.39823684 1.8791158
-1.1515547 -0.38691533 1.8796512
0.42080387 0.69723159 1.8549988
-0.97767979 -0.37615064 1.8792975
-1.0057842 -0.36187238 1.870779
-0.037769619 0.173766 1.8682247
-1.2701738 -0.31809771 1.8706245
0.31352469 0.79475188 1.8502835
-1.052731 -0.23523758 1.8767165
0.8379494 0.8582958 1.8597653
-0.61699724 0.32885033 1.8690817
-1.1745874 -0.19622412 1.8770949
-0.95171571 -0.17540817 1.8798184
-0.9667533 -0.16156964 1.8779324
0.11836916 0.38473246 1.8690889
-0.96463954 -0.14722188 1.8745537
-0.62882102 -0.14095877 1.8768778
0.11825279 0.39739197 1.8654432
-0.38221928 0.40269774 1.8674468
0.4749139 -0.13851102 1.8718392
0.11856437 0.4115113 1.8685387
0.54909199 0.42087698 1.8611288
1.3326888 0.96313292 1.8584638
0.54938191 0.43447587 1.8600771
-1.3728199 0.98669952 1.8560359
1.3576138 0.98552006 1.859671
1.3343197 0.99568152 1.8509358
-1.3905717 1.0794406 1.8542904
-0.39219242 -0.0068138619 1.8784043
-1.3513242 1.0895877 1.8525459
-1.3340832 1.0885025 1.8573838
-1.2634197 0.0070574335 1.8777184
0.74683082 -1.0667733 1.8961979
-1.3750529 1.1118199 1.8509139
0.72025865 -0.50516313 1.8804213
-1.3415626 1.1265738 1.8568012
-1.3180462 1.1201725 1.8527768
1.2999496 -0.50626588 1.8856497
0.43170202 -0.49160454 1.884084
0.45885876 -0.49185565 1.8808253
0.54538542 -0.497067 1.8864619
0.5583896 -0.49652761 1.8817511
0.61692703 -0.49989295 1.8832501
0.70563155 -0.49077803 1.8841909
0.76620334 -0.49419907 1.8830035
0.97446173 -0.49417385 1.8837308
-0.078583017 -0.48395461 1.8853844
-0.06359186 0.057787359 1.8736467
-0.038736671 -0.48281997 1.881742
-0.02549085 -0.48234475 1.8800232
0.21356916 -0.48534819 1.8839705
0.36210993 -0.48852068 1.8815151
0.63144654 -0.48684567 1.8851204
0.67949587 -1.0253648 1.8995643
0.68966633 -0.48925397 1.8816819
0.90852475 -0.48950011 1.8843937
1.0774282 -0.48758456 1.8857919
1.1105084 -0.48934197 1.8816555
1.2028761 -0.48251536 1.8858807
1.295629 -0.48953006 1.8818369
-0.17161591 -0.47144595 1.8865398
-0.052036412 -0.47031364 1.8866245
0.00092742644 -0.47060937 1.888293
0.040692642 -0.4708153 1.8888376
0.067159884 -0.47051659 1.887131
0.093826503 -0.47138864 1.889912
0.10703068 -0.47109416 1.8882571
0.12009396 -0.47031286 1.8845745
0.18660806 -0.4710958 1.8841796
1.2403013 -0.47061867 1.8879054
-0.52713263 -0.46741888 1.8841596
-0.51388353 -0.46768415 1.8877213
-0.47096404 -0.46543592 1.8855815
-0.44223821 -0.46359131 1.8823663
-0.36064178 -0.46228561 1.8883576
-0.14453319 -0.46969968 1.8809581
-0.13126354 -0.46953475 1.880931
-0.038738258 -0.46961853 1.8840228
-0.012302781 -0.46988633 1.8853419
0.014125835 -0.46892536 1.8814461
0.053807147 -0.46958974 1.8836625
0.70779955 -1.0089126 1.8944806
-0.98689616 -0.45128337 1.8868301
-0.9001556 -0.99913818 1.8946623
-0.74641418 -0.45009065 1.8841746
-0.67096883 -0.45965403 1.8816015
-0.30506626 -0.45926231 1.8821216
-0.063513391 0.083482124 1.8706853
0.72177571 -0.99315864 1.893939
-1.3072689 -0.44392696 1.8813586
-0.73068625 -0.44893095 1.8828747
-0.56954062 -0.44172329 1.8866147
0.65920013 -0.98755693 1.8969775
-0.96864194 -0.43519726 1.8861835
0.22885153 0.6499545 1.8674729
-1.0693477 -0.42698693 1.8849844
-1.0185412 -0.4239015 1.8868308
-0.99880636 -0.4216325 1.8816601
0.39279518 0.65506405 1.8643458
-1.2695397 -0.4113709 1.8872347
-1.1557389 -0.41760638 1.8824917
-0.91827369 -0.41748708 1.8866743
-1.0175793 -0.40915495 1.887109
-0.98096317 -0.40587649 1.8817695
-1.1941932 -0.39132586 1.8894072
-1.0658995 -0.39677465 1.8829669
-1.0152107 -0.39388967 1.8846781
-0.99917352 -0.3932111 1.886413
-0.96273685 -0.39002672 1.8807172
-1.3038387 -0.38276726 1.8847027
1.306312 -0.39787969 1.8823578
-1.2063769 -0.37576878 1.8812532
-0.96355838 -0.37617493 1.8842361
-0.037837379 0.16116397 1.8723551
-1.2865579 -0.36711735 1.8897449
-1.2666351 -0.36568806 1.8887439
-0.97804731 -0.3621031 1.8818426
0.669074 0.71653694 1.8609273
0.62633282 0.72930884 1.8639978
0.68734974 0.72110802 1.8695344
-0.96025687 -0.34661409 1.881303
0.71915144 0.73900664 1.868902
-0.97693241 -0.33334464 1.8831271
0.61294168 0.74381953 1.8649733
0.30077887 0.75610387 1.8683575
0.83358777 0.79640871 1.866544
-1.0602034 -0.25124794 1.8889316
0.83636516 0.82786763 1.8646671
-0.27422154 -0.24264607 1.8815843
-0.60508484 0.31621176 1.8782873
0.49332076 -0.20653728 1.8858106
-1.2697265 -0.18499908 1.8813523
0.55092245 0.38203734 1.8731306
-0.95382208 -0.1477139 1.8856071
0.36541036 0.93181753 1.8693143
0.40868974 0.93463004 1.8692452
-1.2721786 -0.12613706 1.8881491
-0.97170961 -0.12010682 1.8897297
0.13202582 0.41272825 1.8735331
0.42351571 0.96449471 1.8611628
-0.96864617 -0.10567557 1.8842795
-1.2724603 -0.096548796 1.8896909
0.13243826 0.44032118 1.8754973
1.3791243 0.9896369 1.8606423
1.3214612 0.99781567 1.8615957
0.41511372 0.48739454 1.8719728
1.3457528 1.0200324 1.8618611
0.19949472 0.50939333 1.8729527
0.48805305 0.54772353 1.875258
-0.61727172 0.019890355 1.8889593
-1.404183 1.1061596 1.8671242
-0.15900677 0.56618673 1.8783895
0.10724198 0.56451553 1.8752075
-1.3619934 1.1142271 1.8617786
-0.050863102 0.032096848 1.8806465
1.0658696 -0.50354195 1.8940248
0.51844996 -0.22561042 1.8876735
0.71361685 -1.0320498 1.9050323
0.73883116 -0.49450314 1.8915374
0.93037218 -0.49356762 1.8956004
1.1537977 -0.49539256 1.8936734
1.2838529 -0.49078283 1.893201
0.01424087 -0.48605335 1.894676
0.40658253 -0.48027304 1.898824
0.46252665 -0.48221147 1.8983055
0.5191533 0.059529264 1.8850676
0.54620922 -0.48418644 1.8916875
0.56142491 -0.48555663 1.8944265
0.60541677 -0.48796016 1.8954465
0.61935103 -0.48811516 1.8931001
0.86472046 -0.4887858 1.8947718
0.8801381 -0.4894855 1.8931924
0.96287531 -0.48122227 1.8963879
0.99820602 -0.48443416 1.8993526
1.0668728 -0.48941529 1.8983086
-0.83094037 -0.47264749 1.8980948
-0.43114686 -0.4796221 1.8925493
-0.34807664 -0.47680989 1.8923484
0.02749473 -0.47179377 1.8929529
0.080686539 -0.4721559 1.8934171
0.20063965 -0.47290778 1.8905848
0.41928697 -0.4793393 1.8931534
-0.66058797 -0.46198428 1.8944486
-0.43072936 -0.46566793 1.8929361
-0.28033486 -0.4623583 1.8976555
0.20135695 -0.46123698 1.8995713
0.51885056 0.072774574 1.8836516
0.67808992 -1.0085244 1.9006984
0.74340725 -1.0024936 1.9081907
-0.97398663 -0.45193663 1.894465
-0.94281846 -0.45074525 1.8989362
-0.81409651 -0.45700702 1.8979826
-0.61541384 -0.4591291 1.8918499
-0.60269415 -0.45987493 1.8978795
-0.012347121 -0.45830333 1.8943386
0.093972459 -0.45883018 1.8950273
0.51906681 0.086090468 1.8840731
-0.98869181 -0.43776104 1.8925054
0.37989569 0.64258814 1.8723656
0.38168585 0.65921378 1.8781242
-0.064161114 0.12337676 1.8885281
0.22982676 0.66618806 1.8723495
0.25801855 0.66946828 1.879307
0.50692046 0.12623082 1.889258
-0.052902605 0.6795224 1.8776386
-1.2916567 -0.39863527 1.8934306
-1.2572064 -0.39724904 1.8996065
-1.2893943 -0.38293189 1.8920541
-1.2710859 -0.38193929 1.8935493
-1.1085835 -0.38719386 1.8980128
-1.2335339 -0.37959459 1.8943975
-1.197183 -0.36271995 1.8979696
0.21253639 -0.35074455 1.8940542
0.66025072 0.72210985 1.8788149
-1.2488577 -0.34997177 1.8925105
-1.1779842 -0.34663063 1.8985687
0.48509622 -0.34321195 1.89533
-1.2519895 -0.33593231 1.8990228
-0.96817124 -0.33521837 1.8986309
-1.1032424 -0.32720944 1.8959218
0.48358095 -0.32873312 1.8909366
-1.0868328 -0.31213981 1.8996818
0.39996296 0.76332808 1.8743852
-0.97937781 -0.30576247 1.8910506
0.30170569 0.77210426 1.8704495
0.33106074 0.77683049 1.8789096
0.58770043 0.77503264 1.8716775
-1.3047838 -0.29298717 1.8962972
-0.99747741 -0.29269606 1.8950952
-0.9615069 -0.2904478 1.8900816
-0.038259793 0.24131086 1.8879827
0.53568035 0.247052 1.8841085
-1.2466494 -0.28993914 1.8955686
0.47068065 -0.28882369 1.8995646
-1.2862538 -0.27721885 1.8990269
-0.99776608 -0.27851269 1.8970641
-0.96223152 -0.27650163 1.8929194
0.46941295 -0.27466077 1.8957204
-0.97705841 -0.26251441 1.8907498
-0.96070927 -0.26192155 1.8912293
-1.1538639 -0.25612178 1.8979741
0.80963284 0.82999295 1.8777472
-0.98002988 -0.24909504 1.8978143
-0.30363849 -0.24524131 1.8992215
-0.24881482 -0.24342576 1.8900669
-0.97574097 -0.23384938 1.8906326
-0.60529071 0.30284745 1.8804046
0.34785628 0.85305965 1.873962
-1.2466078 0.86999154 1.8765337
0.82976657 0.86480665 1.8781886
-0.97889763 -0.20620327 1.8989773
-1.2245961 -0.18487808 1.8989104
-1.2594965 -0.17083946 1.8954916
0.48204705 -0.16731989 1.8987566
-1.3522079 0.92025048 1.8752804
-1.0257313 -0.15001653 1.895528
1.220998 0.91848963 1.879302
-1.2969427 -0.14203258 1.8957155
-1.0059949 -0.14920433 1.8902
0.55618197 0.39922681 1.889293
1.2183673 0.93191934 1.8705661
-0.64989042 -0.12908313 1.8970737
0.55621004 0.41279 1.8874556
-1.0068542 -0.10674666 1.8937283
-0.9904505 -0.10650915 1.8944113
-0.9586705 -0.10612689 1.8971511
1.3856517 0.96249247 1.8793154
-1.1990076 -0.095417134 1.8920331
-0.99055094 -0.092355058 1.8950962
-0.97373563 -0.09210436 1.8947496
0.11954926 0.44129112 1.8802449
-1.3470395 0.99096942 1.8777822
1.4059669 0.98147887 1.8733976
-0.5997774 0.45710334 1.888708
-0.61452168 0.47159377 1.8869349
0.50098264 0.47949463 1.8828996
-1.354437 1.0283068 1.878039
1.3718842 1.0118185 1.874357
0.3223401 0.50192386 1.8862355
-1.3149992 1.0541558 1.8701695
1.4042281 1.0560337 1.8793275
1.4199946 1.0557654 1.8718052
-1.4029217 1.072889 1.8762828
-1.301517 1.0719684 1.8748451
-1.3818587 1.0851604 1.8711251
-0.39584276 0.0063483361 1.896032
-1.3899782 1.1077121 1.8767284
1.179999 -0.50023472 1.9064399
-0.3957817 0.059241667 1.8951367
0.49182409 -0.48432469 1.9021459
0.50617766 -0.48501298 1.9024923
0.59349149 -0.48945472 1.9041898
-1.3959249 1.1449411 1.8735869
1.23316 -0.48863605 1.903829
-0.3359544 -0.47866425 1.9013762
-0.26835868 -0.47827893 1.9068992
-0.18644837 -0.47542316 1.9017506
-0.10587189 -0.47422054 1.9009597
-0.09271884 -0.47523412 1.9055158
-0.025752667 -0.47395554 1.9017142
0.16193826 -0.47655737 1.9078298
1.3083903 -0.47915021 1.9029771
-0.58992285 -0.46061522 1.9038248
-0.46089837 -0.46891275 1.9019998
-0.40573072 -0.46795264 1.9062564
-0.37819642 -0.46743065 1.9078007
-0.35017833 -0.46618414 1.9060868
-0.25446615 -0.46403435 1.9070866
-0.22690603 -0.46265772 1.9036182
-0.19969428 -0.46171772 1.9016976
-0.18645398 -0.4620524 1.9039829
-0.15958588 -0.46176898 1.9044079
-0.14616081 -0.46161667 1.904482
0.12101624 -0.46058226 1.9013275
0.16153598 -0.46199024 1.9052237
0.17532678 -0.46306658 1.9089174
0.18822727 -0.46180561 1.9028362
1.3252801 -0.46454051 1.9011621
-0.83094823 -0.45855141 1.9004024
-0.80070812 -0.4573867 1.9035332
-0.78765577 -0.45797536 1.9098939
-0.76837856 -0.45490018 1.9007566
-0.70819479 -0.45219892 1.9037147
-0.66409445 -0.45058104 1.9067978
-0.48997203 -0.45710716 1.9071702
-0.4188939 -0.45397097 1.9046853
0.77539992 -0.99058193 1.9112818
-0.89788204 -0.44972572 1.9082565
1.3275503 -0.4500894 1.9067527
-0.19959646 -0.44812277 1.9028666
0.17462355 -0.44784862 1.9033031
-0.96145391 -0.43842182 1.9050834
-0.97618145 -0.42421421 1.9031276
1.3057307 -0.43266454 1.9059634
-0.064271219 0.11055173 1.8923188
-1.0952417 -0.40225607 1.9037539
-1.060689 -0.40024894 1.904923
-1.1860045 -0.39350477 1.9060087
-1.0406692 -0.39815396 1.9000993
0.28680921 0.68714428 1.88493
-1.0932329 -0.3869282 1.9022051
-1.0788455 -0.38700098 1.9079937
-1.0620562 -0.38620219 1.9093618
-1.0443652 -0.38504887 1.9088578
-1.2035491 -0.37952024 1.9062749
-1.1129552 -0.37406313 1.9074668
-1.093158 -0.37231269 1.9039719
-1.0744327 -0.37088484 1.9020146
-1.2614021 -0.36851642 1.9098585
-1.2174116 -0.36434677 1.900471
-1.0424089 -0.36983556 1.9071319
-1.2942036 -0.35423794 1.9028891
-1.2371033 -0.35085812 1.9036032
-1.2215496 -0.35067546 1.9087828
-1.0767515 -0.35712084 1.9079719
-1.0085462 -0.35363293 1.9098485
-0.038339958 0.18947527 1.8958483
0.19986928 -0.35172749 1.9003514
-1.2924337 -0.3387129 1.9020092
-1.2779156 -0.33885145 1.9092652
-1.2198428 -0.33529669 1.9078169
-1.0204252 -0.33836737 1.9017446
-0.95616776 -0.3360087 1.9079092
-0.038370684 0.20272291 1.8964996
-1.2723094 -0.32238424 1.9024823
-1.0041907 -0.3233858 1.9048874
-0.98856294 -0.32297161 1.9073657
-0.97027773 -0.32166421 1.9044226
-0.038340952 0.21565144 1.8940785
0.40047494 0.75052893 1.8804928
-0.038370457 0.22891314 1.8945482
0.47342858 -0.31750894 1.9079018
0.53247356 0.76199532 1.8888046
0.60631311 0.76693618 1.8871019
-1.2938116 -0.30896088 1.9073163
-1.2727047 -0.30749905 1.9046633
-1.0183027 -0.30895066 1.9009697
-1.005427 -0.30940634 1.9088225
0.56068975 0.77631819 1.8804727
-1.0195414 -0.2949526 1.9048016
-0.98420012 -0.29298976 1.9019241
-1.0383272 -0.28177592 1.9093088
0.77764165 0.79792053 1.8862338
-1.0163972 -0.26538378 1.9016562
-0.95233417 -0.26351747 1.9075824
-1.0010538 -0.25080025 1.9059929
0.31997383 0.82496947 1.884668
-1.3058301 -0.24815725 1.9019196
-0.96632022 -0.24922606 1.903631
-0.29049802 -0.24532706 1.9012483
-1.0164467 -0.23673618 1.9042397
-0.99992281 -0.23621795 1.9050269
-0.98321617 -0.22137694 1.9063644
-1.2291957 -0.20039459 1.9051316
-0.61118037 0.33300015 1.8958102
-0.98090887 -0.19239642 1.903896
-1.2112895 -0.1851012 1.9073366
-1.2483834 -0.1713496 1.9075091
-1.0121784 -0.17866166 1.9002855
-0.98336023 -0.17861117 1.9096097
-1.1522452 -0.16817255 1.9016544
-0.99741769 -0.15004764 1.9059387
0.35301286 0.92202973 1.8843694
0.48237884 -0.15406163 1.9008203
-1.2611512 -0.12651601 1.9002461
1.3875175 0.94785285 1.8866553
-0.63709486 -0.12923804 1.9024198
-1.3642497 0.96019822 1.8826438
1.346814 0.95750928 1.8831668
-1.3472933 0.97529256 1.8830678
-1.137149 -0.095139325 1.9098231
1.333593 0.97525042 1.8887684
-1.2820078 -0.082354002 1.9044367
0.30018589 1.0041341 1.8892992
-1.3200167 0.47801831 1.8952792
-1.0351017 1.0130069 1.8832642
1.4216402 1.0085623 1.8894529
-0.44367552 1.0110006 1.8840311
-1.3213805 1.0274041 1.8897744
0.14794683 0.48754305 1.89896
0.53316027 0.48417014 1.8964494
1.4240527 1.0264434 1.8875997
0.43429002 0.49401003 1.895565
0.44761539 0.49377117 1.8925495
0.21571161 0.51652664 1.8984195
-1.1524434 1.0674871 1.8829257
-1.3871078 1.07314 1.8836858
0.50779247 0.5408051 1.8988847
-0.064542785 0.019375961 1.9024165
-0.064641617 0.032517519 1.9052374
0.50937712 -0.50181955 1.9122534
0.79318458 -0.50247753 1.9109498
-0.06463851 0.045627214 1.9049709
0.65600175 -1.0348364 1.9239842
0.90468931 -0.49516207 1.9108858
0.95502102 -0.49897563 1.9118319
0.29845756 -0.48034492 1.9123636
0.35361663 -0.48179755 1.9120725
0.38137841 -0.48259926 1.9118201
0.43902835 -0.48625773 1.9186558
0.52361494 -0.4885422 1.9139826
0.5388903 -0.48992535 1.9169031
1.1302856 -0.48319814 1.9179014
1.339159 -0.48478568 1.9188284
-0.49213019 -0.47281751 1.9134254
-0.2008968 -0.47795403 1.9110543
-0.07978791 -0.47792003 1.9167725
0.67054158 -1.0194255 1.9248087
-1.3863577 1.1504827 1.8896683
1.2796133 -0.47975984 1.9184676
1.2942965 -0.47956067 1.9111818
-0.6522491 -0.46587235 1.9137073
-0.63939553 -0.46663478 1.9199828
-0.54916906 -0.46101043 1.9136531
-0.5349465 -0.46060637 1.9145477
-0.39273623 -0.46862265 1.9108896
-0.33764124 -0.46752402 1.9132236
-0.32421708 -0.46769628 1.9154837
-0.29673526 -0.4670907 1.9158834
-0.13334617 -0.46355584 1.9131949
-0.12029688 -0.46502212 1.9198825
-0.093049616 -0.46350244 1.9145421
-0.066040926 -0.46242034 1.9107697
-0.052622225 -0.46221849 1.9102026
0.14900133 -0.4646365 1.9169457
0.21607684 -0.46415508 1.9107151
-0.96540713 -0.45464861 1.9107586
-0.93280536 -0.45282644 1.912434
-0.91635424 -0.45179859 1.9126292
-0.88604128 -0.45096105 1.9179494
1.2943487 -0.46436492 1.9136379
-0.72707117 -0.45531201 1.9134283
-0.35210267 -0.45516697 1.9188105
-0.051491708 0.084902376 1.9030318
-0.85301137 -0.44863865 1.9165359
-0.80258423 -0.44436067 1.9102403
-0.77200788 -0.44299445 1.9120046
-0.74225628 -0.44201618 1.9151186
-0.9345023 -0.43925777 1.9181517
-0.91550446 -0.43705916 1.9130375
-0.20110944 -0.43804941 1.9194652
0.37030154 0.64949828 1.894477
-1.1550384 -0.42270875 1.9115145
-0.96757555 -0.42675671 1.9194643
1.2900181 -0.43248284 1.9116942
0.25947931 0.6596517 1.893219
-0.75707847 -0.41440675 1.9176773
-1.1354796 -0.40619257 1.9113129
-1.1544505 -0.39286569 1.9146231
-0.96485996 -0.39672709 1.9181104
-0.72594815 -0.3986913 1.9187303
-0.60918492 0.14209348 1.9053036
0.24618477 0.68773711 1.8904046
-1.0295203 -0.38492703 1.9134128
0.27475232 0.69105619 1.8971
-1.189045 -0.37963748 1.9128779
-1.1745108 -0.37974805 1.9193716
-1.151348 -0.37703571 1.9113635
-1.1868914 -0.36410078 1.9112507
-1.115337 -0.3601746 1.9134201
-1.2829514 -0.35529274 1.9150991
-1.2049392 -0.35018122 1.9121619
-1.0642705 -0.35782135 1.9170898
-1.0479581 -0.35723525 1.9191819
-1.0265681 -0.35487729 1.9115571
-1.3208834 -0.34218666 1.9150589
-1.1526779 -0.34788889 1.9172242
-1.1341677 -0.34675187 1.9166237
-1.0641644 -0.3431941 1.9186441
-1.1871902 -0.33448669 1.9152421
-1.1495199 -0.33218509 1.9136302
-1.0088964 -0.33932847 1.9122379
-1.0410054 -0.31144768 1.9113204
-1.0974298 -0.30053723 1.9198908
-1.28075 -0.29436284 1.9183202
-1.2381341 -0.29143101 1.9116634
-1.0776755 -0.29911938 1.9161713
-1.0948143 -0.28520983 1.916738
-1.0592911 -0.28352341 1.9160134
-1.0230904 -0.28155532 1.9129189
-1.2910405 0.26262534 1.9075673
-1.2041709 -0.27556211 1.9187828
-1.2949042 -0.26401395 1.9132689
-1.0067587 -0.26662615 1.9156575
-1.1266767 -0.25658876 1.9128805
-1.0895313 -0.25475222 1.9101002
-1.0574729 -0.25403708 1.9153699
-0.95654756 -0.2503916 1.9173602
-1.2919061 -0.24836828 1.9100912
-1.2762891 -0.24825495 1.9156719
-1.093715 -0.24113394 1.9187322
-1.3106186 -0.23399054 1.9101667
-0.97236699 -0.23647138 1.9168421
-1.0241268 -0.22408636 1.9198909
-0.96856934 -0.22128949 1.9104228
-1.3142701 -0.21952373 1.9166746
-1.0898004 -0.21118242 1.914059
-1.0567755 -0.2103987 1.917558
-1.2911026 -0.20313863 1.9123006
1.1466627 0.86270833 1.8958819
-1.0022085 -0.2080947 1.9116182
-1.2197266 0.88825399 1.8906516
-1.0708294 -0.19582863 1.9124929
-1.0574673 -0.19603668 1.9198333
-1.0226946 -0.19493625 1.9192588
-1.0024112 -0.19380234 1.9130024
-0.96852851 -0.19276465 1.9123838
-1.2751862 -0.1879822 1.9183887
-1.1428065 -0.18359983 1.9152178
-1.0562333 -0.18132506 1.9185114
-1.3238622 0.90665555 1.8978102
-1.0188735 -0.1654789 1.9138114
-1.0009356 -0.16489023 1.9119356
0.38267028 0.91151029 1.8927178
-1.3231959 0.9219647 1.8922523
-1.1755571 -0.1547211 1.910936
-1.072356 -0.15259273 1.9178418
-1.0546736 -0.15213442 1.9173101
0.3844462 0.92994243 1.8970145
-1.2897611 -0.14288981 1.9137768
-1.2337868 -0.14163326 1.9157463
-1.0705754 -0.13785844 1.9153529
1.3931905 0.93572742 1.8991628
0.39903101 0.94505101 1.8922709
-1.3318379 0.959723 1.8952284
-1.158402 -0.12504219 1.9141039
1.3165314 0.95851481 1.8985392
1.4180698 0.95772445 1.8994018
0.1283861 0.96933645 1.8993856
0.38512909 0.9600485 1.8910478
-1.3174781 0.97670984 1.8992095
-1.1226996 -0.10974518 1.9151951
1.3359312 0.96106958 1.8969709
-1.3774955 0.98555142 1.896173
-1.1766602 -0.095981739 1.9152545
-1.1233159 -0.095203638 1.9167662
1.3000866 0.97391647 1.89938
1.4017689 0.98978698 1.8964386
1.3234066 0.99538279 1.8986974
1.3596865 0.99862719 1.8914591
0.12150901 0.46192187 1.9092175
-1.1698433 1.0223054 1.8958108
-0.636015 0.49130884 1.9052314
0.35393775 0.50884497 1.909253
0.52233112 0.50051588 1.9069865
-1.2688144 1.0553083 1.8916707
-1.2332468 1.05205 1.8983285
1.3893298 1.040827 1.893223
-1.2928836 1.0780154 1.892025
-1.2775277 1.0785383 1.8993956
-1.1957211 1.0784011 1.8904666
-1.3338538 1.0853547 1.8918135
1.4014579 1.0824785 1.8992332
-0.33914733 0.56429327 1.9048738
-0.20228124 0.57554632 1.9071289
-0.17517027 0.57550144 1.9087542
0.70718408 -1.0444748 1.9317421
0.73580593 -0.50193632 1.923828
1.1200178 -0.50010651 1.9290417
0.79728955 -0.49085844 1.9233617
-1.3661276 1.1309252 1.8967632
1.0458686 -0.49328145 1.924032
0.31404781 -0.48352748 1.9236985
0.3985042 -0.48692364 1.9272436
0.64244956 -1.0220721 1.9364328
0.87840587 -0.48213789 1.927418
0.90803361 -0.48259524 1.9204307
-0.12047355 -0.47919598 1.9205394
-0.066538282 -0.47939941 1.9230924
0.38403076 -0.47227436 1.9274775
0.49835697 -0.47694156 1.9299182
0.82745415 -0.47763497 1.9218103
1.1357501 -0.47060391 1.9296459
1.223842 -0.47582948 1.9214522
-0.5672344 -0.46454173 1.9257522
-0.45240301 -0.46050856 1.9281964
-0.24363028 -0.46905279 1.9290429
-0.080031164 -0.46588114 1.924847
-0.051764745 0.07218089 1.913556
-0.039472088 -0.46504295 1.9221826
0.00094448705 -0.46577367 1.9254941
0.014429994 -0.46553624 1.9244692
0.027929299 -0.46575832 1.9252969
0.041440837 -0.46597329 1.9260325
0.081878498 -0.46564183 1.9237982
0.13631158 -0.46727663 1.9285873
0.25813746 -0.46727347 1.9203387
0.28574619 -0.46815175 1.9214407
0.30010203 -0.46939385 1.9252107
1.2633356 -0.46415073 1.9256282
-0.70010543 -0.45598692 1.9232204
-0.65443802 -0.45349079 1.9224032
-0.33999619 -0.45714685 1.9288467
-0.25689617 -0.45489478 1.9275924
-0.012517129 -0.45115447 1.9227439
0.1633326 -0.45359644 1.9287145
-0.9523232 -0.44084486 1.9204566
-0.83949852 -0.44902411 1.9223565
-0.82633293 -0.44961178 1.9289824
-0.76033843 -0.44438836 1.9218115
-0.71461225 -0.44226536 1.923285
-0.685597 -0.44165161 1.9273684
-0.55210656 -0.44964945 1.9261503
-0.38064453 -0.4431994 1.9245381
-0.18852793 -0.44012398 1.929531
-0.051727131 0.09845268 1.9113929
-0.87169456 -0.43663406 1.9243784
-0.85734653 -0.4366129 1.9285359
0.24418859 -0.43945831 1.9224473
-0.9536016 -0.42697281 1.9252067
-0.92010486 -0.42486298 1.9248629
0.41523007 0.65564102 1.9068509
-0.96710342 -0.412099 1.9205996
-0.95443422 -0.41286913 1.9289814
-0.49284178 -0.41863427 1.9246714
-1.2549936 -0.40133154 1.9256411
1.2971203 -0.41961619 1.9244561
-1.1409246 -0.39330971 1.9225599
-0.95178944 -0.39728868 1.9255954
-0.62817478 0.14333275 1.9191214
-0.012694537 0.68905336 1.9046638
0.28997296 0.68096179 1.9091909
-1.2701321 -0.38620001 1.921277
-0.96787262 -0.38350484 1.9260827
-0.61119562 0.15616576 1.9109386
0.30400503 0.69534093 1.9061717
-1.067217 -0.37344542 1.9206142
0.42359623 -0.37519687 1.9289297
0.43680558 -0.37483287 1.925032
0.45020494 -0.3746489 1.9220028
-1.2500495 -0.36960337 1.9218646
-1.1769881 -0.36563721 1.9253238
-1.1018547 -0.36056951 1.9210799
-0.96472025 -0.3678419 1.921616
0.49338841 -0.36275744 1.9263185
0.14858884 -0.35596892 1.9266628
-1.1743283 -0.34993285 1.9227303
-1.1017505 -0.34583172 1.9226613
-1.0862916 -0.34559146 1.9267743
-1.0502038 -0.34340042 1.9250735
0.47732383 -0.34734255 1.9205987
-1.1721615 -0.33443651 1.9208682
-1.1355485 -0.3324132 1.9206764
-1.1016302 -0.33109179 1.9241397
-1.0842415 -0.33027342 1.924793
0.47726774 -0.33369273 1.9219677
-1.2664803 -0.32473072 1.9228523
-1.191201 -0.32071361 1.9234107
-1.1740755 -0.3201077 1.9256716
-1.0482013 -0.32817313 1.9230429
-1.1179405 -0.31684548 1.9230061
-1.0816915 -0.31486538 1.9218365
-1.2652469 -0.30933949 1.9225585
-1.2500994 -0.30932152 1.9287695
-1.1342562 -0.30254695 1.9216475
-1.1202611 -0.30274925 1.9285789
-1.2305191 -0.29317373 1.9294066
-1.0837835 -0.28615516 1.9285815
-1.2475982 -0.27861467 1.9278313
-1.2239649 -0.27667308 1.9204749
-1.0648305 -0.27040529 1.927495
0.37930596 0.80541223 1.90531
-1.3256457 -0.26717255 1.9297075
-1.2274719 -0.26248387 1.9273773
-1.2050128 -0.26086521 1.9214811
-1.1910028 -0.26105797 1.9289213
-1.0287539 -0.25410637 1.9262588
-1.2655423 -0.24909751 1.9286274
-1.1887028 -0.24568208 1.9264355
-1.0615519 -0.24046119 1.924049
-1.0452653 -0.24006367 1.926072
-1.3032942 -0.23539071 1.9282871
-1.2045444 -0.23099624 1.9231944
-1.1894999 -0.23096503 1.928932
-1.0969054 -0.2271983 1.925543
-1.0790819 -0.22652979 1.9252417
-1.0589331 -0.22534813 1.9204209
-1.0440933 -0.22527909 1.9250493
-1.2980409 -0.21933609 1.9215941
-1.2779698 -0.2184872 1.9205639
-1.263406 -0.21857083 1.9276943
-1.1499702 -0.2142636 1.9253254
-1.0438484 -0.21071425 1.925676
-0.63072687 0.32243562 1.9125872
-1.3179033 -0.20497006 1.9230856
-1.2227445 -0.20177592 1.9245447
-1.1879256 -0.2009352 1.9285203
-0.97548538 -0.20850942 1.925238
-1.3041172 0.88817728 1.9031084
-1.1302004 -0.19862609 1.9234663
1.1887577 0.87116951 1.902797
0.5603925 0.34766993 1.9108354
-1.3282195 0.89381433 1.9086421
-1.2010809 -0.18580908 1.9207495
-1.1689932 -0.18542749 1.9286286
-1.0404831 -0.18110448 1.9213581
-1.0067352 -0.18024199 1.9222476
-1.3172708 -0.17456524 1.9240652
-1.202868 -0.17122248 1.9245259
0.56127667 0.3618848 1.9121912
-1.3723884 0.91801327 1.9081455
-1.1291054 -0.16907957 1.9234225
-1.1146719 -0.16911651 1.929442
-1.0573723 -0.16702217 1.9214625
-1.0416073 -0.16681932 1.9243138
0.10991836 0.370552 1.9147789
0.35581985 0.91516817 1.9040256
-1.3202873 -0.15977705 1.9293489
-1.2174258 0.9291991 1.9084361
-1.2932985 0.93891609 1.9031473
-1.2230365 -0.14211282 1.9284585
-1.2048141 -0.14172527 1.929234
-1.1674997 -0.14081582 1.9285904
-1.314736 0.94296992 1.9048599
-1.1130275 -0.13954982 1.9281101
-1.058172 -0.13812964 1.9244425
-1.021978 -0.1371666 1.9211904
-1.0044577 -0.13674295 1.9202112
-0.98972642 -0.13669218 1.9244146
-0.97409523 -0.13651381 1.9267203
-1.2603421 -0.12794128 1.9281969
-1.2371742 -0.12710382 1.9217236
-1.0908911 -0.12404096 1.9210002
-1.0420598 -0.12343036 1.9273148
-1.0239747 -0.12299818 1.9256182
1.3182899 0.94392544 1.9058788
1.4160826 0.94030339 1.901468
0.15673153 0.95539707 1.9031547
-1.3614135 0.96948409 1.9078676
-1.2934142 -0.11319063 1.9205308
1.2596329 0.95145011 1.9037905
1.2819742 0.95638096 1.9073266
1.3018427 0.95936936 1.9068279
0.35941204 0.96741629 1.9093816
-1.0766484 -0.1095143 1.9275386
0.50176686 -0.10178812 1.9241632
-1.3437675 0.98433018 1.9074415
-1.1663657 -0.096347407 1.9284799
-1.148908 0.98651004 1.9029179
-1.0385097 -0.094134308 1.9217724
1.3818911 0.97103262 1.9030913
1.4249909 0.97857904 1.9038897
-1.4019661 0.99152052 1.9007702
-1.3177052 -0.083673395 1.9286042
-1.1453787 -0.081130333 1.924198
1.3273125 0.9823423 1.9093183
1.383257 0.98806381 1.9000767
0.30159533 0.99453479 1.9032102
-1.3317697 0.46695438 1.9146838
1.3091713 0.99667394 1.9077932
-0.43328255 1.0058293 1.9087542
0.13543019 0.46371734 1.9161035
-1.3258455 1.014888 1.9013417
0.12211757 0.47769931 1.9166782
0.13562964 0.47786897 1.9167675
-1.3142365 0.48146361 1.9157134
-1.3086926 1.0299585 1.9011149
-1.0833871 1.0299382 1.9042323
-1.0633106 1.025517 1.9013904
1.3294075 1.0158997 1.9023196
-0.69636273 1.030967 1.9083637
0.5537104 0.49028322 1.9179717
-1.2950913 1.047851 1.9059526
-1.0507184 1.0592257 1.9013872
0.51158667 0.51724494 1.9182732
-0.94869912 1.0643569 1.9077095
0.23149006 0.52183592 1.91704
0.24535105 0.52247429 1.9182872
-1.4212388 1.0705477 1.9063621
-1.276104 -0.0078131426 1.9256891
-1.2544876 -0.0077723078 1.9218827
-1.2388325 1.0727116 1.9016467
0.49777579 0.53103453 1.9181402
-1.3829387 1.0825121 1.9072189
-1.2777523 0.0072215348 1.928198
-0.63023067 0.0065863845 1.9290028
0.49797186 0.54504943 1.9163271
0.52653444 0.54603571 1.9149064
-1.3841046 1.099722 1.9033875
-1.1160052 1.108925 1.9068576
-1.0970329 1.1056612 1.9067624
-0.65931433 0.02035859 1.9276888
-0.64381123 0.020303484 1.9255069
0.12297174 0.56238908 1.9156157
0.5134272 0.56065649 1.9174699
-1.2683318 1.116479 1.9050616
-1.2469524 1.1117446 1.9032114
-1.1341298 1.1112673 1.9052503
1.0513705 -0.51066989 1.93172
-0.18924139 0.57709795 1.9132342
0.4985826 0.57336318 1.9133298
-0.052013535 0.046057813 1.9233556
0.4868921 -0.49313965 1.9393953
0.81611818 -0.49364632 1.9304042
0.86870313 -0.49921137 1.939837
-1.2534093 1.1335851 1.9075013
1.0016403 -0.49324194 1.9391922
1.1938597 -0.49101198 1.9315213
-0.051983375 0.059258431 1.921997
0.32981104 -0.48670074 1.9349117
1.1058701 -0.48552579 1.9384487
-0.42553088 -0.47492158 1.9329002
-0.27266505 -0.47227275 1.9399804
-0.17607243 -0.47007117 1.9381404
0.2324584 -0.47009161 1.934302
0.24686351 -0.47159535 1.9394228
0.27389243 -0.47108951 1.9349033
0.31499055 -0.47132525 1.9317561
0.32917523 -0.47208679 1.9333948
0.35818598 -0.47428381 1.9392371
0.39890841 -0.47369516 1.931478
0.41406319 -0.47533956 1.9363185
0.42784622 -0.47535405 1.9343922
0.51536828 -0.47991669 1.9396344
0.9990027 -0.47726697 1.9364572
1.1225439 -0.47132787 1.9383016
1.3310807 -0.47199467 1.9386641
1.3719827 -0.47545031 1.9392958
-0.58325768 -0.46627226 1.9302249
-0.46795657 -0.46230188 1.9335849
-0.10764331 -0.46858087 1.9352218
0.068875022 -0.46894798 1.937916
1.2133213 -0.46247742 1.9372882
-0.64368153 -0.45574832 1.9351854
-0.62798989 -0.45453438 1.9330447
-0.614999 -0.45526442 1.9391617
-0.56997186 -0.45285809 1.9373178
-0.32680103 -0.45776719 1.9330441
-0.29895717 -0.45695588 1.9325078
-0.28485328 -0.45620072 1.9306471
-0.27226844 -0.45792463 1.9392997
-0.24436142 -0.45683175 1.9370323
-0.2306799 -0.45672706 1.9376868
-0.18956143 -0.45614487 1.9381155
0.041524824 -0.4533917 1.9320884
0.068842523 -0.45514822 1.9391242
0.1914608 -0.45613122 1.9379336
0.24625993 -0.4568142 1.9367977
0.27362806 -0.45700109 1.9351799
0.30174387 -0.45828971 1.9379973
0.34357488 -0.45937893 1.9381155
0.35644004 -0.45829958 1.9318893
-0.73257828 -0.44465366 1.930233
-0.70341831 -0.44405654 1.9345788
0.15035217 -0.44168496 1.9386698
1.0327309 -0.44982082 1.9392518
1.3630491 -0.44140065 1.9311743
-0.65879381 -0.42843354 1.939564
-0.23022331 -0.42862597 1.9379165
-0.21646409 -0.42830801 1.9374993
-0.2025201 -0.42755744 1.9350433
-0.1892799 -0.42829153 1.9392967
-0.052149255 0.11252563 1.9266437
0.23234923 -0.42903614 1.9396361
0.24589464 -0.42892075 1.9380043
0.40256366 0.65750694 1.9142916
1.2851058 -0.42067456 1.9358592
-0.61440349 0.12963603 1.922401
-0.5970434 -0.41054547 1.9353826
-0.052195311 0.12590626 1.9278259
0.09670689 0.66313308 1.9135029
0.24823514 0.66599005 1.9127758
1.2091751 -0.41559258 1.9372224
-0.45104429 -0.40433723 1.9304969
-0.05218694 0.13916518 1.9269215
-0.040080775 0.67685878 1.9118011
-0.026428135 0.67754585 1.9139155
0.097109899 0.67963207 1.9183462
-0.93994665 -0.39838791 1.9356487
-1.1458565 -0.38011509 1.9328784
-0.19192141 0.69549119 1.9162576
-0.052221276 0.16583243 1.9268337
0.39708191 -0.37590966 1.9364573
0.41035479 -0.37555581 1.9327382
-1.1613832 -0.36541912 1.9300262
-1.1437737 -0.3645564 1.9311994
-0.33267882 0.71568346 1.9176977
-0.052290741 0.17935857 1.9286437
-1.2617452 0.18761568 1.9272205
-0.95242947 -0.35421759 1.932475
-1.3685061 0.73171699 1.9190718
-1.2535943 -0.34041893 1.9309342
0.02785003 -0.34334931 1.9364349
-1.0697609 -0.33033061 1.9304978
-1.2529285 -0.32512987 1.931573
-1.2377297 -0.32510605 1.9376888
-1.2156949 -0.32326394 1.9327651
-1.1630591 -0.32117322 1.9379963
-1.0360904 -0.32895467 1.9328471
-0.97012448 -0.32641867 1.9376318
-1.1404178 -0.31901452 1.9306114
-1.071532 -0.31618491 1.9353306
-1.237051 -0.30982891 1.9382122
-1.0713813 -0.30144989 1.9365937
-1.0526203 -0.30028865 1.934347
-1.3091408 -0.29738653 1.9316326
0.88356787 0.77192682 1.9161892
-1.1768292 -0.29103893 1.9332904
-1.1602062 -0.29060978 1.9362631
-0.96896678 -0.2970745 1.9383787
-0.052224115 0.24557289 1.9213951
-1.2915206 -0.28163144 1.9360374
-1.2697698 -0.28018743 1.9324564
-1.1245462 -0.28909707 1.9374961
-1.192765 -0.27636686 1.9304503
-1.1776685 -0.27632606 1.9361012
-1.1615412 -0.27603924 1.9399273
-1.1248252 0.26322284 1.9254736
-1.1048985 -0.27309108 1.9359332
-1.0879468 -0.27253854 1.9374437
0.58685076 0.80704486 1.9138145
-1.2684795 -0.26478916 1.9318461
-1.25383 -0.26488718 1.9389066
0.25277248 0.81804854 1.9119773
-1.1226745 -0.25904459 1.9369799
-1.0483063 -0.25533605 1.9304886
-0.33662999 -0.25007564 1.9340047
-1.1726245 -0.24542955 1.9303496
0.85743934 0.83396214 1.9162545
-1.2517539 -0.23426042 1.9381759
-1.2312514 -0.2332359 1.9358515
-1.1759777 -0.23123233 1.937108
0.52094984 -0.23974365 1.9350419
-1.0130121 -0.22482401 1.9313143
-0.94839174 -0.22325251 1.9369922
-1.2116362 -0.21738485 1.9357356
-1.1918375 -0.21650791 1.933875
-1.1359891 -0.21440995 1.9323633
-1.0836686 -0.21283464 1.9345859
1.1378808 0.85229689 1.9169607
-1.029003 -0.210646 1.9301852
-1.2859138 -0.20470449 1.9336658
-1.170826 -0.20055193 1.9307103
-1.1568031 -0.20069261 1.9378972
0.56335425 0.33579046 1.9226383
-1.3248795 -0.1908143 1.9343457
-1.1217026 -0.19972891 1.9398649
-1.0993255 -0.19835685 1.9319476
1.1795509 0.87578601 1.9189472
0.29888347 0.8862952 1.9182632
-1.2655365 -0.18878248 1.93302
-1.18919 -0.18627118 1.9315594
-1.1359329 -0.18486778 1.9342605
-1.1159651 -0.18400998 1.9308176
-1.0826414 -0.18334457 1.9347069
-1.2580364 0.90469086 1.9196244
-1.190957 -0.17164794 1.9353491
-1.1790528 0.3656812 1.9288019
-1.1551926 -0.17076626 1.9370327
-0.94505423 -0.17946422 1.9330851
-1.2008824 0.91287678 1.917691
-1.100214 -0.16915068 1.935352
1.4011987 0.90892053 1.9194496
-1.4017885 0.92689294 1.9197556
-1.303437 -0.15957354 1.9334683
-1.2648782 -0.15854301 1.9337506
-1.1693848 -0.15585867 1.9309871
1.2431929 0.9194628 1.9184138
0.085798256 0.92554706 1.9121896
0.12857977 0.92826951 1.916281
-1.281845 -0.14368494 1.9309951
-1.2645209 -0.14343184 1.9339584
-1.2350372 0.39916745 1.9244208
-1.2042065 0.9310568 1.9183891
1.3200265 0.92927843 1.9131217
1.4048719 0.9274382 1.919908
-1.4021467 0.94325936 1.9155589
-1.101529 -0.13995133 1.9392232
-1.0485302 -0.13877389 1.9387262
1.2613083 0.93696296 1.9110988
1.4251293 0.93012869 1.9184159
-1.3643029 0.95547795 1.9167852
-0.97556472 -0.12235843 1.930288
-0.96302307 -0.12259007 1.938745
1.3035771 0.94476384 1.9141794
1.3839458 0.94031787 1.915538
-1.2637502 -0.11323004 1.9340591
-1.2275941 -0.1126755 1.9369825
-1.2066907 -0.11212542 1.9335356
-1.1532909 -0.11128891 1.9366332
1.3636184 0.9534269 1.9116802
1.3869894 0.95850044 1.9150159
0.33096936 0.96808904 1.9141383
-0.96269321 -0.1081645 1.9386429
-0.66322309 -0.10405666 1.9374266
-1.307407 0.98107392 1.9143723
-1.281749 -0.098398678 1.9326742
-1.2052366 -0.097097971 1.9317108
-1.1173847 -0.095948182 1.9374821
-1.0614085 -0.094890714 1.9321132
-0.97890997 -0.093956873 1.9380269
0.37631983 0.98850715 1.9159316
0.39095953 0.98902512 1.9150394
-1.2612747 -0.082952842 1.9312243
-1.1721228 -0.081972815 1.9385215
0.42121705 0.99225831 1.9173102
-1.3508987 1.0056494 1.9126408
-0.39086312 1.0084356 1.9198965
-1.3031933 -0.068549171 1.9365454
-1.1686093 -0.066921458 1.933036
-0.44998774 1.0108358 1.9161274
-0.42068759 1.0103482 1.9195282
-1.3595712 1.0283043 1.9199029
-1.4230981 1.039207 1.9194202
0.12290738 0.49433982 1.9269146
-1.1288708 1.0433385 1.9179894
-0.93247283 1.0480181 1.9159005
-0.60426778 1.0405275 1.9129908
0.15017743 0.50845993 1.9254913
0.51285672 0.50469422 1.9255178
-1.4023933 1.0523255 1.9152906
-1.3233138 1.0576174 1.9172629
-1.301147 -0.023015702 1.9341699
-0.84873015 1.0543495 1.9166677
1.3660063 1.0476993 1.9196587
0.34251237 0.51206088 1.9230621
0.37027517 0.51266772 1.9219984
0.34400067 0.52800745 1.9290298
-1.4057686 1.0712177 1.9146247
-1.2464321 -0.0078155184 1.9389464
-1.0931551 1.0704886 1.9109089
-0.83514154 1.0715598 1.9192301
0.12355004 0.53779012 1.9298509
0.15074772 0.53762615 1.9279777
-1.2478162 1.0965028 1.9100832
-0.4041509 0.019984782 1.9360896
0.34426796 0.55588233 1.9254192
-1.0807503 1.1050528 1.9111867
-1.061873 1.1017343 1.9107897
-0.64631069 0.034154113 1.9329133
-0.40353012 0.033436548 1.93297
-1.2711729 0.58983159 1.9206572
-0.64596725 0.047900446 1.9316839
-0.40330866 0.046893261 1.9317168
0.45870343 -0.49268654 1.9420859
0.71260816 -0.49129683 1.9472109
0.72833836 -0.4923093 1.9477495
0.74480408 -0.49377054 1.9499848
0.78988796 -0.49513221 1.9441464
0.83968294 -0.49915367 1.9480224
0.97063673 -0.49244347 1.9458275
1.0404372 -0.49772301 1.9467258
1.0735593 -0.49931598 1.9424298
1.1816372 -0.49221009 1.9422477
1.2220176 -0.49631587 1.9464458
0.53075886 -0.48126596 1.9426354
0.63677269 -0.48771673 1.9491702
0.65200073 -0.48854056 1.9493779
0.79064113 -0.48124734 1.9484047
0.82104111 -0.48223752 1.9445435
-1.3200493 0.068029724 1.9324597
-1.3004218 0.06779813 1.9324079
0.87189925 -0.48653337 1.9494644
0.90219724 -0.48721841 1.9434719
0.93503809 -0.48919111 1.9422956
1.0750133 -0.48507601 1.9475436
1.0930597 -0.48646912 1.947753
1.2607144 -0.48419297 1.9491895
-0.026327517 -0.47089395 1.9467134
0.74172044 -0.4774816 1.9442079
0.75679487 -0.47800568 1.9427067
0.98660624 -0.47837231 1.9459202
1.1628808 -0.4755936 1.9444733
1.2958816 -0.47044489 1.9454625
-0.48548096 -0.46588376 1.9464195
-0.44102004 -0.46298119 1.9407475
-0.41297451 -0.46250933 1.9427758
-0.40325248 0.073833108 1.9308929
-0.39974162 -0.46316412 1.9474604
-0.38533783 -0.46246055 1.9463208
-0.37042668 -0.46107322 1.9422058
-0.3148002 -0.46018755 1.9448478
0.055404127 -0.4699142 1.9422277
0.10986894 -0.46997231 1.9409435
0.31701756 -0.46061674 1.9464695
0.43056718 -0.46451917 1.9490159
-0.88093615 -0.45572141 1.9427356
-0.80096978 -0.45139572 1.9446801
1.3731656 -0.46026847 1.9433408
-0.6917817 -0.45977396 1.9427048
-0.46955258 -0.45003974 1.9423929
-0.404026 0.087473758 1.9342564
-0.17677556 -0.45827654 1.948094
-0.13536203 -0.45693198 1.9444927
-0.10823569 -0.45751062 1.9480995
-0.094222777 -0.4557499 1.9410087
-0.053420525 -0.45563751 1.9415467
0.00095303037 -0.45637187 1.9451847
0.014575055 -0.45659465 1.946106
0.028209932 -0.4568103 1.9469339
0.055488184 -0.45699367 1.9473361
0.082742199 -0.45692238 1.9463929
0.20634553 -0.45897159 1.9491736
0.21933481 -0.45750481 1.9419107
0.23396133 -0.45942491 1.9490724
-0.91525656 -0.44388413 1.9477081
1.2762045 -0.4535158 1.9477224
1.3107795 -0.45485133 1.9404558
1.3316777 -0.4567343 1.9418812
-0.44038031 -0.44851756 1.9400573
-0.24545285 -0.44518268 1.9478494
-0.08079581 -0.44308245 1.9475943
0.014546281 -0.44209856 1.9442984
0.05540631 -0.44270602 1.9465088
0.23350313 -0.44484603 1.9473186
0.26058874 -0.44438103 1.9429779
-0.83091384 -0.43776086 1.9419422
-1.306182 0.11370005 1.9396641
-0.86483651 -0.42599654 1.947647
-0.3985678 -0.42047313 1.9479022
-0.067143023 -0.42927942 1.949124
1.3499066 -0.42666161 1.9435794
-0.4034707 0.12779497 1.9300973
-0.20382825 -0.4166669 1.9495947
0.27716398 0.66950226 1.9204293
0.52170587 0.6682114 1.9277202
0.70272696 0.66563582 1.9289989
-0.92633182 -0.3987588 1.9420742
-0.89612734 -0.39821446 1.9483733
-0.36127108 0.68938261 1.9253514
-0.19252877 0.68387097 1.9256673
-0.95865875 -0.38561544 1.9415473
1.3112819 -0.39336917 1.9497526
0.097700134 0.69758183 1.9268126
0.2640647 0.69900304 1.9203918
0.40663603 0.69213462 1.9272788
-1.34341 -0.37893024 1.9443187
-0.95858568 -0.3710466 1.9432683
0.38567045 -0.37811363 1.9497292
-0.63442725 0.17238525 1.9368768
0.52629983 -0.3666265 1.9421988
