# .PCD v0.7 - Point Cloud Data file format
VERSION 0.7
FIELDS x y z
SIZE 4 4 4
TYPE F F F
COUNT 1 1 1
WIDTH 108
HEIGHT 1
VIEWPOINT 0 0 0 1 0 0 0
POINTS 108
DATA ascii
-0.43254456 -0.36060679 1.5780951
-0.48587683 -0.35080269 1.6310847
-0.42955032 -0.29425588 1.7088605
-0.42422414 -0.35495943 1.6046808
-0.38655186 -0.33550322 1.5865531
-0.38950995 -0.36484724 1.6291674
-0.33642805 -0.36602676 1.5875798
-0.36011136 -0.36397636 1.6190315
-0.37046146 -0.32477045 1.6098621
-0.34555441 -0.35913789 1.6296276
-0.38673505 -0.33756268 1.657872
-0.40300709 -0.33713681 1.6860499
-0.40458521 -0.30131626 1.6607021
-0.41832846 -0.30380464 1.6872473
-0.4081215 -0.31173021 1.6954355
-0.39779279 -0.30999538 1.7033964
-0.322427 -0.31309208 1.6400496
-0.34483954 -0.32596654 1.684944
-0.36382172 -0.29223955 1.6816093
-0.3151702 -0.30491978 1.6553421
-0.37213278 -0.26381329 1.6814035
-0.2881912 -0.26879898 1.6321906
-0.35475957 -0.2512635 1.6909109
-0.29133317 -0.27390066 1.6601118
-0.34276727 -0.22126077 1.6783227
-0.32537723 -0.22410694 1.6943635
-0.39465427 -0.259231 1.7181755
-0.36664245 -0.23176937 1.7227333
-0.23835668 -0.24247582 1.6948866
-0.21423064 -0.057425588 1.6967188
-0.23725076 -0.027043032 1.7189565
-0.22436836 -0.041049033 1.7405646
-0.25298527 0.023451334 1.7142292
-0.23499334 -0.0072562792 1.7360691
-0.21269973 -0.021522464 1.7386177
-0.21169154 -0.0044264845 1.740768
-0.22359319 0.037419442 1.7209009
-0.19326761 0.00017653947 1.7375091
-0.16359961 -0.012529163 1.7410825
-0.14186181 -0.0097326227 1.7268128
-0.19154264 0.041264746 1.7458241
-0.15594733 0.033056632 1.7384849
-0.031746708 -0.055990897 1.6924726
-0.11616455 0.055867594 1.6953198
-0.085514963 -0.017727738 1.7281444
-0.094319262 0.030575994 1.7086272
-0.087444529 0.0099684065 1.7324526
-0.10953451 0.059960492 1.7141474
-0.088158377 0.042525917 1.7207493
-0.057497531 0.021975638 1.7307447
-0.065793224 0.049774908 1.7211323
-0.075823411 0.069992281 1.7311462
0.0070482376 0.066884644 1.7100883
-0.042276673 0.13659698 1.7002856
0.0045902063 0.14977506 1.7003639
-0.12413928 0.1363887 1.7333939
-0.064682968 0.094966225 1.7245188
-0.032862108 0.12745954 1.7299048
-0.036115244 0.13100326 1.7397583
-0.084361754 0.173724 1.7556634
-0.11412118 0.23121913 1.7483021
0.019466542 0.10491168 1.7502071
-0.09420497 0.23161371 1.7482401
0.0084745353 0.12641314 1.7600646
-0.010376629 0.15471175 1.760778
-0.040967133 0.22553688 1.7305183
-0.053461026 0.20332323 1.7748482
-0.0072795092 0.19661583 1.7545249
0.046261381 0.157386 1.751335
0.060221896 0.20496804 1.8299289
0.016941845 0.21133061 1.9072531
0.084187604 0.22931737 1.901786
0.13000134 0.2127303 1.9230467
-0.2011946 0.25512385 1.7502815
-0.2090243 0.25798646 1.7651746
-0.16050905 0.31437474 1.8110416
-0.082241952 0.26624691 1.7501359
-0.06649255 0.28566107 1.7549963
-0.099401832 0.28740588 1.7966167
-0.046515871 0.2596961 1.7822191
-0.11289503 0.31574339 1.8007523
-0.043903016 0.26906103 1.7894059
0.01002173 0.23453228 1.7901186
-0.10079674 0.36369076 1.7916547
-0.073402666 0.32849336 1.8089134
-0.1013023 0.36163437 1.8148354
-0.068320222 0.30876973 1.8444453
-0.11796967 0.33560273 1.8857995
-0.083511971 0.31145936 1.8875562
-0.088949807 0.36086002 1.8728395
-0.057401001 0.3284536 1.8828229
0.010066619 0.28453684 1.8816627
-0.040906064 0.32935882 1.9077432
0.0024118253 0.31460252 1.9170792
0.035370637 0.31386539 1.8567573
0.035061281 0.32967418 1.8798617
0.053025555 0.33497018 1.8873218
0.054401521 0.33373198 1.9065144
0.057594676 0.33799765 1.907967
0.048429888 0.33278883 1.9331344
0.081694722 0.38066486 1.8623211
0.15354729 0.27412632 1.906691
0.081940897 0.36853048 1.9041744
0.12524973 0.30649954 1.9435214
0.15592977 0.30293101 1.9368943
0.12301564 0.35446697 1.9281124
0.16727386 0.33372614 1.9129322
0.16798176 0.32217345 1.9547268
