# .PCD v0.7 - Point Cloud Data file format
VERSION 0.7
FIELDS x y z
SIZE 4 4 4
TYPE F F F
COUNT 1 1 1
WIDTH 108
HEIGHT 1
VIEWPOINT 0 0 0 1 0 0 0
POINTS 108
DATA ascii
-0.47608989 -0.35611978 1.6072761
-0.43777466 -0.3567619 1.6398425
-0.43118003 -0.33981901 1.6457316
-0.47364065 -0.26808059 1.7269366
-0.44659209 -0.18824294 1.7208681
-0.43086717 -0.15836428 1.7343755
-0.42421541 -0.35303941 1.6019502
-0.40404397 -0.33975682 1.6090035
-0.31232107 -0.36186844 1.5692277
-0.40300617 -0.3479692 1.6657346
-0.37134764 -0.33708197 1.6337576
-0.40349126 -0.32344756 1.6627743
-0.3755441 -0.346773 1.6671388
-0.39911366 -0.31129387 1.664572
-0.3734701 -0.31575924 1.6544946
-0.31197488 -0.34261841 1.6300309
-0.34689948 -0.3257916 1.6662325
-0.31272078 -0.3373374 1.6543072
-0.37808955 -0.27205497 1.68533
-0.32806879 -0.28824016 1.6609232
-0.3775543 -0.23865031 1.6711148
-0.29428318 -0.30505851 1.6645916
-0.3849633 -0.23142695 1.6917007
-0.34926951 -0.23675732 1.6805825
-0.32196113 -0.24219306 1.6789981
-0.29174009 -0.25245279 1.6693265
-0.4166995 -0.27786973 1.7081395
-0.40883803 -0.278478 1.7117434
-0.25595203 -0.27356204 1.6355758
-0.25487742 -0.23615178 1.6953583
-0.21005608 -0.061093207 1.6956978
-0.1408948 -0.0076790564 1.7030894
-0.22873899 -0.061112605 1.7053717
-0.23589796 -0.060183588 1.7301168
-0.2347576 -0.055455595 1.7347522
-0.23191667 -0.031334784 1.71738
-0.19604468 -0.038712893 1.7092454
-0.23042569 -0.0095554767 1.7243758
-0.25980592 0.018649282 1.7358242
-0.20834513 -0.009635157 1.7222569
-0.1389095 -0.065699786 1.7192141
-0.13151789 -0.059183579 1.7157267
-0.18216863 -0.02302492 1.7401843
-0.17816198 -0.0059200251 1.7489405
-0.15183721 -0.012863921 1.7387449
-0.13129918 0.0017821689 1.7237812
-0.1648028 0.047764327 1.7315408
-0.15442036 0.052465845 1.7263005
-0.086914852 -0.057974432 1.689564
-0.063022353 -0.043776926 1.6912094
-0.076377369 -0.017566785 1.6984245
-0.056770429 -0.00061837415 1.7021455
-0.03902803 0.012439032 1.7018933
-0.12937663 0.041558232 1.7232127
-0.091958277 0.041079942 1.7065129
-0.095411271 0.041245747 1.7391311
-0.076687731 0.055472866 1.7155944
-0.060310233 0.10675867 1.6692878
-0.015042624 0.14545813 1.7036076
-0.11740697 0.12000371 1.7222534
-0.10378055 0.11627506 1.7227384
-0.085102357 0.11473288 1.7348835
-0.07478074 0.12309206 1.7360849
-0.11371085 0.17445232 1.7338684
-0.12625858 0.1976639 1.7330643
-0.092089251 0.1724788 1.7344625
-0.066388823 0.16336086 1.7278744
-0.10733832 0.21685024 1.7565813
0.0096327169 0.12487963 1.7410738
-0.056652304 0.19800711 1.7437553
-0.068882093 0.22050159 1.7636317
-0.055352286 0.21816191 1.7613773
-0.056717407 0.21617509 1.784494
0.070681125 0.093770273 1.6909519
0.02415337 0.16219407 1.7484663
0.051998761 0.15847722 1.7441487
0.053084921 0.18607622 1.7354226
0.062011342 0.18783052 1.8047771
0.034112699 0.19720779 1.8846956
0.10635092 0.21635585 1.8912802
-0.16801395 0.29866529 1.7739863
-0.15459153 0.3255946 1.7946314
-0.18810327 0.37260276 1.800969
-0.15212052 0.34883854 1.818271
-0.15469359 0.37050179 1.8500082
-0.037481733 0.25913471 1.7734251
-0.054221321 0.29298124 1.7651541
-0.12337657 0.34522939 1.8025099
-0.030540509 0.29679066 1.7691051
-0.0020336567 0.27540314 1.8020058
0.037135631 0.24883023 1.8089864
-0.043080349 0.26443014 1.9036683
-0.018876096 0.29452279 1.8584416
-0.097554646 0.36710265 1.8852324
-0.070319794 0.3510274 1.8943825
-0.069486201 0.34675354 1.907845
-0.010019294 0.34065539 1.8746352
0.022995085 0.3039628 1.8693298
0.039127711 0.30338964 1.8922467
0.093222663 0.24769323 1.9148506
0.073653355 0.28541708 1.9066581
0.076948762 0.31731993 1.9007013
0.070567466 0.3401573 1.8937765
0.13297786 0.30472016 1.8759907
0.097782202 0.32917163 1.8986657
0.16729654 0.25355652 1.9138603
0.12871101 0.32716209 1.9087346
0.12911668 0.33004558 1.9157006
