ply
format ascii 1.0
comment PCL generated
element vertex 649
property float x
property float y
property float z
element camera 1
property float view_px
property float view_py
property float view_pz
property float x_axisx
property float x_axisy
property float x_axisz
property float y_axisx
property float y_axisy
property float y_axisz
property float z_axisx
property float z_axisy
property float z_axisz
property float focal
property float scalex
property float scaley
property float centerx
property float centery
property int viewportx
property int viewporty
property float k1
property float k2
end_header
0.15634456 -0.34982535 0.65249115
0.0053646006 -0.11792103 0.71309835
-0.028902752 -0.046400346 0.69750714
-0.033820488 -0.046460446 0.69829017
-0.039074488 -0.046909075 0.70501775
-0.028898101 -0.051266089 0.69717401
-0.034145642 -0.051834345 0.70493066
-0.039230317 -0.052043229 0.70766878
-0.049516283 -0.05245832 0.71303684
-0.028933404 -0.056207869 0.69780368
-0.034234047 -0.056908529 0.70655179
-0.039061315 -0.056744784 0.7043106
-0.044346124 -0.057207972 0.70999759
-0.049507566 -0.057434738 0.71266204
-0.028968232 -0.061160557 0.69839913
-0.034227461 -0.0618366 0.70614678
-0.039323881 -0.062085096 0.70888114
-0.04439842 -0.062247261 0.71058494
-0.02924495 -0.06667649 0.70492977
-0.034456328 -0.067222133 0.7106812
-0.029399935 -0.071987674 0.70843524
-0.033929523 -0.071090408 0.69927186
-0.079707474 -0.072652362 0.71265519
-0.029392881 -0.076927051 0.70792723
-0.068751961 -0.081534967 0.70272344
-0.06458547 -0.092507556 0.71088922
-0.049423948 -0.0075653824 0.71288568
-0.059357557 -0.0075627249 0.71214354
-0.044452008 -0.01254411 0.71313733
-0.059436947 -0.012554981 0.71307147
-0.054313153 -0.017491501 0.71136343
-0.034453992 -0.022472139 0.71243858
-0.039420992 -0.02246945 0.71218652
-0.044264317 -0.022404768 0.70990527
-0.029078519 -0.027068013 0.70250171
-0.047991302 -0.026677925 0.69147074
-0.054007292 -0.027275397 0.70707089
-0.029075697 -0.031968538 0.70230025
-0.034117095 -0.032098603 0.7050789
-0.039305858 -0.032317027 0.70981705
-0.029072411 -0.036867522 0.70206535
-0.034396727 -0.037325144 0.71082836
-0.03924736 -0.037218157 0.70858234
-0.043825388 -0.036905568 0.7023167
-0.06385193 -0.037135832 0.7058273
-0.02906866 -0.041764732 0.70179707
-0.034156088 -0.041992743 0.70557094
-0.038809881 -0.041697353 0.70033669
-0.043941472 -0.041923985 0.70404118
0.019923337 -0.046602003 0.70080906
0.014652258 -0.045436319 0.68297023
0.0098517137 -0.045308366 0.68105823
0.0051509258 -0.045828827 0.68909222
0.00033792964 -0.045959074 0.69110662
-0.0043882132 -0.044920139 0.67512661
-0.014223908 -0.046215538 0.69495612
-0.018863078 -0.04569374 0.68686223
-0.023795594 -0.045950092 0.69070649
0.02508915 -0.052058749 0.70829636
0.019725919 -0.050986893 0.69349498
0.014942894 -0.051204968 0.69660473
0.01001947 -0.050920211 0.6927008
0.0052376324 -0.051495258 0.70073187
0.00033739791 -0.050706796 0.68977922
-0.0044445684 -0.050276123 0.68378061
-0.0091181975 -0.049701221 0.67575532
-0.013882056 -0.049842712 0.67767143
-0.018538561 -0.049624823 0.67456931
-0.023892581 -0.050983734 0.69336712
0.030071074 -0.057070628 0.70873231
0.020138515 -0.057001397 0.70807862
0.015212272 -0.057083186 0.70919585
0.0099753672 -0.055515099 0.68934643
0.0052804654 -0.056851406 0.70634508
0.00033733819 -0.055517007 0.68941683
-0.0043930677 -0.054417282 0.67544615
-0.0090508061 -0.054023422 0.67041594
-0.013839658 -0.054413915 0.67532182
-0.018535282 -0.054332402 0.67421478
-0.023854751 -0.055741712 0.69200641
0.01988503 -0.061169673 0.69870913
0.0152721 -0.062282316 0.71177793
0.010297898 -0.062284883 0.71186519
0.0052867397 -0.061859835 0.70693684
0.00034108953 -0.061007153 0.69699246
-0.0045823595 -0.061689314 0.70494872
-0.0090885181 -0.058957595 0.67302024
-0.013797056 -0.058955297 0.67294222
-0.019120866 -0.060914285 0.69573987
-0.024018116 -0.06099527 0.69658864
0.010281646 -0.067153566 0.71042764
0.0051762774 -0.065404974 0.69156212
0.0003352949 -0.06476073 0.68461066
-0.0043786303 -0.06365484 0.67264783
-0.0092838714 -0.065035149 0.68753684
-0.014253316 -0.065769531 0.69542152
-0.019063329 -0.065581702 0.69331694
-0.024080275 -0.066037558 0.69814616
0.0051896935 -0.070424676 0.6930896
0.00033855753 -0.070227496 0.69111818
-0.0045930455 -0.071710676 0.70603019
-0.009176611 -0.069038495 0.67911679
-0.013870914 -0.068739101 0.67605323
-0.019353503 -0.071504518 0.70379508
-0.02427634 -0.071499445 0.70364624
-0.0045666075 -0.076208241 0.70154661
-0.0092006959 -0.073986888 0.68061823
-0.014107023 -0.074723847 0.68749851
-0.019482668 -0.076939158 0.70826066
-0.024404788 -0.076828033 0.70711696
0.0052963994 -0.081772506 0.70696718
0.00034458551 -0.081323326 0.70301175
-0.0094348704 -0.080758519 0.69798142
-0.014143312 -0.079743139 0.6889593
-0.024398554 -0.081757404 0.70657611
-0.0045831911 -0.086341299 0.70341855
-0.0095636798 -0.086816348 0.70734161
0.005299842 -0.022388125 0.71023542
0.00034480687 -0.022264976 0.70625651
-0.0045683547 -0.022203147 0.70424312
-0.0094935065 -0.022233471 0.70519453
-0.01447182 -0.022325106 0.70811105
0.0052848137 -0.02726372 0.70806718
0.00033427321 -0.026360195 0.68410343
-0.0044347518 -0.026322354 0.68309015
-0.0094795721 -0.027112531 0.704027
-0.01453061 -0.027375048 0.71093911
-0.01922071 -0.026997006 0.70083368
-0.024143377 -0.027032726 0.70168459
0.025172062 -0.032371167 0.7114442
0.0052988976 -0.032288626 0.70986229
-0.0046056034 -0.0322887 0.709867
-0.0093733324 -0.031665318 0.69583374
-0.014289375 -0.031797491 0.6987496
-0.019513693 -0.032373842 0.71161795
-0.024208283 -0.0320158 0.70348036
0.015242529 -0.037336744 0.71148211
0.010094425 -0.036671538 0.69858766
0.0051888293 -0.036467303 0.69464529
0.00033324806 -0.035800856 0.68168116
-0.0045099361 -0.036467385 0.69464982
-0.0092143118 -0.035902362 0.68361789
-0.014267777 -0.036618982 0.69751763
-0.019163067 -0.036668237 0.69840193
0.025235109 -0.04240692 0.7129302
0.019759715 -0.041364312 0.69512272
0.015156821 -0.042063881 0.70721811
0.01020605 -0.042007517 0.7063064
0.0052757226 -0.042008583 0.70635933
0.00033702396 -0.041021202 0.68940717
-0.0043571386 -0.039916951 0.67042547
-0.009134152 -0.040322751 0.67736739
-0.014305896 -0.041599371 0.69924736
-0.019133795 -0.041480873 0.69713712
-0.024034347 -0.041536011 0.69798785
-0.008843313 -0.043620866 0.65512443
0.060118437 -0.11714876 0.70669281
0.065327913 -0.12255856 0.70839596
-0.040696692 -0.10530844 0.73111111
-0.051081255 -0.10555762 0.73246187
-0.0610242 -0.10496364 0.72774708
-0.066828981 -0.10605804 0.7352041
-0.072360657 -0.10659298 0.73867357
-0.082386672 -0.10612518 0.73466253
-0.030268054 -0.10984289 0.72690684
-0.040683184 -0.11040378 0.73037541
-0.045807377 -0.11038909 0.73008037
-0.050659586 -0.10978792 0.7258026
-0.056197517 -0.11064687 0.73135835
-0.061247054 -0.11048084 0.72997159
-0.06584122 -0.10958258 0.72362411
-0.072336756 -0.11175066 0.73792875
-0.077309437 -0.11143328 0.73544943
-0.082683794 -0.11169835 0.73687112
-0.03074101 -0.11674323 0.73798901
-0.040992256 -0.11641178 0.73552537
-0.045548886 -0.11486682 0.72536445
-0.051248927 -0.11622612 0.73390973
-0.056252263 -0.11590125 0.73157161
-0.061549813 -0.11618619 0.73314017
-0.066520527 -0.11585785 0.73073405
-0.072217256 -0.11675034 0.73616505
-0.077890508 -0.11748787 0.74057001
-0.083195545 -0.11761226 0.74100322
-0.030850686 -0.12236222 0.74013412
-0.0358142 -0.12155119 0.73497564
-0.041138947 -0.12201612 0.73767078
-0.046138689 -0.1215209 0.7344166
-0.05156742 -0.12214155 0.7380237
-0.057122156 -0.12291974 0.74257612
-0.061608545 -0.12146124 0.73331392
-0.06702289 -0.12191633 0.73582584
-0.072474711 -0.12236934 0.73829895
-0.077963725 -0.12282026 0.74073279
-0.08284162 -0.12231228 0.73723936
-0.030194875 -0.12485298 0.72351813
-0.035659552 -0.12617201 0.73117417
-0.040369857 -0.1248258 0.72303671
-0.046848569 -0.12863681 0.74538046
-0.051278468 -0.12662113 0.7332378
-0.056729868 -0.12726589 0.73680353
-0.061585374 -0.12657779 0.73246777
-0.066997722 -0.12705211 0.73497665
-0.072730884 -0.12802303 0.74039114
-0.078136928 -0.12832667 0.74183899
-0.083242476 -0.12812965 0.74030793
-0.030867172 -0.13283813 0.73937833
-0.035739608 -0.13161251 0.73226351
-0.041107304 -0.13228981 0.73593587
-0.04610322 -0.13175295 0.73268867
-0.05146046 -0.13225284 0.7353043
-0.056411166 -0.13171203 0.73198926
-0.061803989 -0.13220768 0.73453158
-0.066796243 -0.13183601 0.73213035
-0.072608098 -0.13301925 0.73851973
-0.077802971 -0.13298938 0.73800671
-0.083641782 -0.13399485 0.74333215
-0.040767875 -0.13633843 0.72912252
-0.046508379 -0.13811891 0.73864526
-0.051304892 -0.13701966 0.73242176
-0.056388259 -0.13681759 0.73107326
-0.062264089 -0.13841102 0.73949438
-0.067382529 -0.13820451 0.73807204
-0.072673075 -0.13835531 0.73857373
-0.077872634 -0.13832431 0.73806024
-0.083607994 -0.13918918 0.74240017
-0.030801358 -0.14294319 0.73651385
-0.035944916 -0.14274228 0.73530477
-0.041449569 -0.14384514 0.74092758
-0.046549305 -0.14345315 0.73866582
-0.051821686 -0.1436186 0.73931062
-0.056957066 -0.14340878 0.73795968
-0.062157091 -0.14338329 0.73755336
-0.067529403 -0.14372845 0.73906863
-0.07254824 -0.14332573 0.73663419
-0.080367267 -0.14813843 0.76153052
-0.036117088 -0.1486377 0.73823351
-0.041431487 -0.14900702 0.7399286
-0.046710525 -0.14918071 0.74060738
-0.05193365 -0.14915887 0.74027091
-0.057080328 -0.14894152 0.73892039
-0.062291637 -0.14891511 0.73851317
-0.067500047 -0.1488864 0.73807031
-0.072705343 -0.14885543 0.73759198
-0.026555305 -0.15900861 0.76308328
-0.031898905 -0.15879518 0.76190466
-0.03727442 -0.15877931 0.76166868
-0.042594492 -0.15856107 0.76041776
-0.047959525 -0.15854031 0.76010877
-0.05285164 -0.15711784 0.75292069
-0.058238663 -0.15729231 0.753519
-0.063636504 -0.15746431 0.75408
-0.069394931 -0.15843295 0.75850713
-0.074934915 -0.15879959 0.75996608
-0.087649167 -0.049286455 0.73892719
-0.087504759 -0.059542507 0.73719394
-0.095695414 -0.061484154 0.76131552
-0.087948561 -0.065039314 0.74072891
-0.087930433 -0.070219681 0.74026757
-0.087910943 -0.075396724 0.73977083
-0.08800514 -0.080675684 0.74022663
-0.088672966 -0.086525515 0.74558055
-0.089569032 -0.092690438 0.75286227
-0.088624075 -0.09694729 0.74432892
-0.089746736 -0.10347643 0.75349474
-0.096116811 -0.10464026 0.76171768
-0.093716994 -0.013171585 0.74674672
-0.093834497 -0.01842148 0.74763125
-0.088043839 -0.023506075 0.74314582
-0.087460645 -0.028516388 0.73800451
-0.086636037 -0.038482141 0.73060089
-0.086740181 -0.043651864 0.73131257
-0.045578115 -0.04858942 0.73063129
-0.050336108 -0.048257753 0.72532493
-0.055172581 -0.048055142 0.72197896
-0.059965614 -0.047851842 0.71860158
-0.064979158 -0.047842335 0.71817535
-0.070084453 -0.047896892 0.71870834
-0.074793503 -0.047691483 0.71523499
-0.080000319 -0.047809336 0.71669167
-0.045205746 -0.053254675 0.72430903
-0.055387069 -0.053309396 0.72461784
-0.060037255 -0.052941471 0.71925211
-0.065496974 -0.053289086 0.72379303
-0.070073269 -0.05291963 0.71836448
-0.076407261 -0.053838186 0.73076856
-0.079987571 -0.052822914 0.71634841
-0.085562378 -0.053166918 0.72073954
-0.055005156 -0.057974305 0.71926618
-0.06010792 -0.058042161 0.71986735
-0.06548547 -0.058344342 0.72341228
-0.069681741 -0.057626229 0.71401668
-0.075479575 -0.058240078 0.7214582
-0.081057228 -0.058617637 0.72588116
-0.049700912 -0.062664166 0.71523535
-0.055143435 -0.063165203 0.72084069
-0.060015187 -0.06298323 0.71846122
-0.066704944 -0.064589769 0.73689163
-0.070995435 -0.063809231 0.72749239
-0.076379269 -0.064050116 0.7299642
-0.08060839 -0.063353211 0.72150213
-0.039639726 -0.067582458 0.71440637
-0.044632416 -0.067573354 0.71411884
-0.049893405 -0.067931384 0.71777123
-0.056471229 -0.069852769 0.73826617
-0.060083933 -0.068091743 0.71900684
-0.065987267 -0.068998262 0.72849846
-0.070791207 -0.0687076 0.72505724
-0.075754203 -0.06859991 0.72356641
-0.08124169 -0.068950869 0.72699183
-0.039630853 -0.072564915 0.71392828
-0.045047991 -0.073247105 0.72059363
-0.04994984 -0.073038414 0.71828341
-0.05578915 -0.074113287 0.72884107
-0.061856415 -0.075285405 0.74034458
-0.066412367 -0.074579075 0.73296642
-0.07124918 -0.074266888 0.72952408
-0.07654956 -0.074447371 0.73100048
-0.034629073 -0.077553108 0.71366948
-0.03967534 -0.077649564 0.71440911
-0.044915646 -0.078061663 0.71809167
-0.049667597 -0.07762748 0.7137996
-0.055403981 -0.078670591 0.72336006
-0.061111249 -0.079500943 0.73089355
-0.066220656 -0.079485252 0.73045921
-0.071421668 -0.07957387 0.73097992
-0.076531358 -0.079555683 0.73047519
-0.081420906 -0.079325303 0.72795874
-0.029869754 -0.083212167 0.71929967
-0.034714565 -0.082753889 0.71510851
-0.039989017 -0.083306231 0.71981561
-0.045025725 -0.083295055 0.71952564
-0.050330531 -0.083732136 0.7231667
-0.05553858 -0.083943009 0.72478783
-0.060446613 -0.083703078 0.72241086
-0.066379689 -0.084809907 0.73187912
-0.077628195 -0.085895345 0.7407884
-0.081725039 -0.084751874 0.73036349
-0.029982716 -0.08858297 0.72169095
-0.034799475 -0.087977864 0.71651042
-0.040032148 -0.08844427 0.72022158
-0.045013551 -0.088313237 0.7189402
-0.051127408 -0.090206631 0.73446518
-0.056043889 -0.089834288 0.73112851
-0.060754772 -0.089222409 0.72578102
-0.065307043 -0.088490263 0.71941519
-0.071668357 -0.090138502 0.73278964
-0.075476937 -0.088570364 0.71944314
-0.083001696 -0.091286212 0.74161154
-0.029853106 -0.093234278 0.71809584
-0.034836654 -0.093098782 0.71688414
-0.04023644 -0.093969569 0.72356325
-0.045061409 -0.093453206 0.71931076
-0.051045284 -0.09520226 0.73284256
-0.055359129 -0.093801536 0.72159499
-0.061142903 -0.094917551 0.73009855
-0.072310507 -0.096137136 0.73906988
-0.075658329 -0.093850762 0.72079551
-0.083410889 -0.096972346 0.74491572
-0.030287724 -0.099699177 0.72833633
-0.035061773 -0.098759823 0.72118205
-0.040709589 -0.10020819 0.73181224
-0.045776378 -0.1000621 0.7305277
-0.050827421 -0.099914491 0.72920907
-0.056085337 -0.10016335 0.73082161
-0.061448809 -0.10054321 0.73338509
-0.065795921 -0.099329948 0.72406292
-0.070964165 -0.099441513 0.72458339
-0.075838462 -0.099153817 0.72211009
-0.083277799 -0.10204534 0.7432512
-0.0302378 -0.10463397 0.72664946
-0.035239108 -0.10434434 0.72444767
-0.045458429 -0.10445764 0.72488588
-0.055622045 -0.1044249 0.72419631
-0.075510517 -0.10378268 0.71846122
-0.02965145 -0.007600355 0.71696055
-0.034648098 -0.0075995671 0.71674114
-0.039697163 -0.0076090242 0.71748632
-0.044636142 -0.0075976257 0.71620023
-0.054541077 -0.0075848363 0.71452582
-0.065025099 -0.0076440796 0.71969002
-0.069849223 -0.0076217237 0.71723843
-0.07525301 -0.0076613757 0.72072387
-0.029650481 -0.012600188 0.71689171
-0.034599707 -0.012581693 0.71567357
-0.039587706 -0.012580187 0.71542048
-0.049557745 -0.012576573 0.71481222
-0.055284377 -0.012746246 0.72442782
-0.066344596 -0.012930254 0.73456013
-0.070606172 -0.01277296 0.72513199
-0.076979309 -0.012993143 0.73756379
-0.029649038 -0.017599411 0.71678859
-0.034503493 -0.017525565 0.71357352
-0.0395317 -0.017547471 0.71431941
-0.045119643 -0.017785106 0.72401124
-0.049555339 -0.017566428 0.71470946
-0.060003195 -0.017704196 0.71994358
-0.065460362 -0.017820591 0.72449619
-0.06984359 -0.0176489 0.71706593
-0.079822779 -0.018819552 0.76530427
-0.029525777 -0.022505298 0.71365535
-0.049552131 -0.022555433 0.71457243
-0.055501632 -0.022952164 0.72717512
-0.059918035 -0.022701537 0.71880949
-0.06448707 -0.022543028 0.71340537
-0.0697442 -0.02263055 0.71593338
-0.075140432 -0.022748461 0.71941793
-0.079719685 -0.022619754 0.71491373
-0.034545727 -0.027516924 0.71426463
-0.039525948 -0.027513629 0.71401191
-0.046087183 -0.028488368 0.73965859
-0.059669331 -0.027608924 0.71564943
-0.065098517 -0.027791459 0.72020233
-0.071446493 -0.028311873 0.73366803
-0.074626058 -0.027591133 0.71427506
-0.080906279 -0.028035305 0.72566962
-0.045352221 -0.03311269 0.72748071
-0.050626259 -0.033240993 0.73014408
-0.054672454 -0.032613374 0.71583408
-0.059744854 -0.032651823 0.71643978
-0.064563759 -0.032556493 0.71402484
-0.071154982 -0.033304397 0.73047382
-0.075635493 -0.03303035 0.72400808
-0.080898523 -0.033110995 0.72546113
-0.086069614 -0.033146694 0.7258842
-0.049740791 -0.037668739 0.7169469
-0.054666299 -0.037611194 0.71559453
-0.059575584 -0.037553076 0.71420908
-0.069629207 -0.037588757 0.71432245
-0.076033622 -0.038296886 0.72773951
-0.080347314 -0.037929162 0.72025394
-0.050072722 -0.042962678 0.72165287
-0.055106077 -0.042955499 0.72129416
-0.059730466 -0.04265745 0.71592593
-0.064636283 -0.042590946 0.71450698
-0.070094541 -0.042871878 0.71901804
-0.075718977 -0.043210011 0.72448146
-0.080445468 -0.043025427 0.72097039
0.030826021 -0.048346564 0.72739035
0.025369702 -0.047636986 0.71661299
0.030903798 -0.053559791 0.72903621
0.025533892 -0.058017831 0.7208764
0.030809676 -0.063548125 0.72624511
0.025839876 -0.063809715 0.72942525
0.030885952 -0.068793744 0.72778404
0.025799954 -0.068799868 0.7279774
0.020407712 -0.067791715 0.71718711
0.015415329 -0.067887709 0.71830481
0.031003039 -0.074162126 0.73028016
0.026035877 -0.074564286 0.73445213
0.020735795 -0.073976345 0.72864407
0.015767366 -0.074574001 0.7347374
0.010392142 -0.072895624 0.71791255
0.030995604 -0.079250701 0.72975677
0.025580846 -0.078306653 0.72100657
0.020592242 -0.07852374 0.72315198
0.015679954 -0.079268046 0.73023438
0.010601103 -0.079482697 0.73231256
0.0055236556 -0.08011888 0.7383337
0.00037804458 -0.083819062 0.77315766
0.031318225 -0.085235097 0.73714119
0.026506167 -0.086367242 0.74726778
0.020725518 -0.084124222 0.72756541
0.015487833 -0.08334171 0.72073537
0.010739329 -0.085707135 0.74168855
-0.0047110771 -0.083684839 0.7238636
-0.020012788 -0.084124975 0.72758484
0.031557575 -0.091085456 0.74249423
0.02656799 -0.091808915 0.74864525
0.0207753 -0.089430779 0.7289592
0.01544184 -0.088124134 0.71816432
0.010581427 -0.089558773 0.73016572
0.0054624779 -0.089441761 0.72922766
0.00035688034 -0.089323312 0.72825462
-0.014897306 -0.089078717 0.72612023
-0.01990037 -0.088716112 0.72302353
-0.024660354 -0.087636761 0.71393991
0.031878885 -0.097264744 0.74978453
0.026629366 -0.09727335 0.74998409
0.021350885 -0.097154401 0.74915618
0.015896983 -0.095899738 0.73936594
0.010479793 -0.093761265 0.72259384
0.0055045979 -0.095275909 0.73455209
0.00035296727 -0.093386367 0.71969175
-0.0046514906 -0.092629574 0.71372485
-0.0097579341 -0.093635656 0.72161162
-0.014873095 -0.094010092 0.72450328
-0.020001628 -0.09425699 0.72636789
-0.025089329 -0.094250351 0.72621393
0.032075677 -0.10314944 0.75405461
0.026586842 -0.10236197 0.74831212
0.021206014 -0.10170551 0.74352175
0.01614278 -0.10264076 0.7505852
0.010800498 -0.10184821 0.74473101
0.0054956554 -0.10025727 0.73289359
0.00035619395 -0.099328637 0.72597563
-0.0046943715 -0.098531201 0.72001392
-0.0097681135 -0.09879452 0.72194672
-0.014968255 -0.099720202 0.72879946
-0.020129245 -0.099980339 0.73066145
-0.025048222 -0.099176705 0.72456312
0.0054429723 -0.10438307 0.72526085
0.0003537006 -0.10368627 0.72032964
-0.0046802312 -0.1032669 0.71734422
-0.0098175118 -0.10438094 0.72521615
-0.019989235 -0.10437124 0.72501272
0.031262007 -0.0078283632 0.73891181
0.026044931 -0.0078083286 0.73710895
0.020798333 -0.0077674226 0.73327088
0.015605292 -0.0077263862 0.72939646
0.010395452 -0.0076333648 0.72048706
0.005388231 -0.0076543014 0.72254068
0.00035058908 -0.0076128845 0.71856046
-0.0046705571 -0.0076335762 0.72054565
-0.0096660936 -0.0076126559 0.7184968
-0.014913755 -0.00773681 0.73041081
-0.019707715 -0.0076223058 0.71929622
-0.024687001 -0.0076113911 0.71814531
0.031385206 -0.013029759 0.74183792
0.026251605 -0.013048121 0.74303365
0.020936489 -0.012963122 0.73819786
0.015709512 -0.012895094 0.73432457
0.010536352 -0.012826853 0.73041534
0.0054610642 -0.012861568 0.7324695
0.00037254844 -0.01341192 0.76448464
-0.0048671202 -0.013188297 0.75147122
-0.0099028144 -0.012930077 0.73642367
-0.014693368 -0.012637281 0.71934456
-0.019653451 -0.012602193 0.71722817
-0.024652567 -0.012601294 0.71707696
0.031507891 -0.018271448 0.74472797
0.026077395 -0.018105006 0.73793143
0.020768873 -0.017962258 0.73209584
0.015708748 -0.018011326 0.73421919
0.010436975 -0.017747894 0.72331315
0.0054023936 -0.017772362 0.72436684
0.00035151574 -0.017676456 0.72038764
-0.0046892124 -0.017748382 0.72337186
-0.0096126357 -0.017531829 0.71432614
-0.014632679 -0.017579172 0.71624255
-0.019679302 -0.017626226 0.71812445
-0.02465136 -0.017600954 0.71697396
0.031754248 -0.023645656 0.75057751
0.025868207 -0.023061981 0.73179674
0.02065647 -0.022940347 0.72795928
0.015623954 -0.023003338 0.7300815
0.010478665 -0.022880945 0.72617304
-0.019597597 -0.022539711 0.7149896
-0.02471702 -0.022661427 0.71883464
0.031213515 -0.028385263 0.73741871
0.025762374 -0.028048964 0.72862601
0.02051599 -0.027825115 0.7227909
0.015748341 -0.028316228 0.73590171
0.01040721 -0.02775256 0.72100377
0.031044915 -0.033346426 0.73321491
0.020930383 -0.033529747 0.73756319
0.015872451 -0.033709563 0.74168372
0.010335602 -0.032554649 0.71580267
0.00036766485 -0.034245826 0.753838
0.030875852 -0.03825146 0.72897857
0.025756961 -0.038203612 0.72817385
0.020705968 -0.038257703 0.72933054
-0.024709828 -0.037691232 0.7182169
0.030871872 -0.043332502 0.72870022
0.064331263 -0.0027715054 0.76394451
0.068220951 -0.0079338681 0.74751478
0.062767208 -0.007904388 0.74497277
0.057954948 -0.0079576652 0.75036889
0.052659929 -0.0079486538 0.74974877
0.04719045 -0.0079084188 0.74609822
0.042103402 -0.0079302415 0.74839926
0.036408398 -0.0078275343 0.73868102
0.067417204 -0.01299856 0.73847991
0.063094214 -0.013172927 0.74888706
0.056745704 -0.01291771 0.73434472
0.052246291 -0.013074528 0.74369174
0.047127075 -0.013093726 0.74502856
0.042046998 -0.013129903 0.74732906
0.036696542 -0.013079942 0.74460214
0.085346393 -0.018694405 0.7596913
0.078721136 -0.018387403 0.74732792
0.073227018 -0.018319752 0.74486184
0.068571664 -0.018467641 0.75131834
0.063502438 -0.018519336 0.75376087
0.056818414 -0.018066907 0.73523593
0.052175105 -0.01823796 0.74258757
0.047372155 -0.01838477 0.74891269
0.042155016 -0.018387306 0.74921811
0.036164347 -0.018005433 0.73351121
0.083809167 -0.023572944 0.7456364
0.078613453 -0.023578804 0.74619037
0.073509842 -0.023615088 0.74770403
0.068121992 -0.023558626 0.74619663
0.062511325 -0.023409365 0.74166298
0.057871059 -0.023629364 0.74904859
0.053132791 -0.023849063 0.75640571
0.047554608 -0.023698647 0.75176233
0.042152289 -0.023609448 0.74907482
0.036788814 -0.023519851 0.74634957
0.08358366 -0.028710738 0.74347126
0.078709766 -0.028830636 0.74700576
0.075420596 -0.029589301 0.76741874
0.068294607 -0.028843613 0.74800879
0.063164249 -0.028887033 0.74945283
0.058017284 -0.028930018 0.75086242
0.052236158 -0.028633911 0.74326491
0.046499588 -0.028299626 0.73462731
0.041543618 -0.028416438 0.7379204
0.037123322 -0.028984535 0.75315821
0.083466239 -0.033864319 0.74226463
0.077676095 -0.033606365 0.7368539
0.073209383 -0.033925019 0.74432719
0.068555124 -0.034198869 0.75077921
0.062993683 -0.034028061 0.74724662
0.057483625 -0.033856649 0.7436741
0.052848831 -0.034217894 0.75202173
0.046495091 -0.033423141 0.73441678
0.042254839 -0.03413897 0.75067633
0.037023313 -0.034143128 0.75094694
0.08433193 -0.039463345 0.74995726
0.080950573 -0.040394697 0.76839608
0.07396768 -0.039533533 0.75203067
0.068280354 -0.039286003 0.74754393
0.063808881 -0.039754983 0.75694966
0.057703443 -0.039198712 0.74641287
0.052225228 -0.039000358 0.74280345
0.04667531 -0.038698811 0.73716152
0.041809969 -0.038960461 0.74244833
0.036296099 -0.038606305 0.73573321
0.083118148 -0.044067603 0.73875475
0.078888491 -0.044600513 0.74824154
0.073096007 -0.044262815 0.7427997
0.067737527 -0.044156358 0.741292
0.062896296 -0.044397376 0.74571621
0.057771448 -0.044463649 0.74712306
0.052836072 -0.044703402 0.75148326
0.047101993 -0.044245746 0.74385476
0.041254524 -0.043554954 0.73219687
0.035327505 -0.042572882 0.71550941
0.099701494 -0.014718657 0.83666044
0.099661656 -0.043904822 0.8356604
0.16977568 -0.019234307 0.77330476
-0.16358316 -0.62600636 3.4039209
-0.11604457 -0.64777792 3.3926432
-0.13979156 -0.67231941 3.394135
-0.11632773 -0.6257627 3.4038649
-0.14039445 -0.62786841 3.4147851
-0.16256411 -0.5282746 3.3930759
-0.1625264 -0.50469947 3.3946242
0 0 0 1 0 0 0 1 0 0 0 1 0 0 0 0 0 649 1 0 0
