# .PCD v0.7 - Point Cloud Data file format
VERSION 0.7
FIELDS x y z
SIZE 4 4 4
TYPE F F F
COUNT 1 1 1
WIDTH 1447
HEIGHT 1
VIEWPOINT 0 0 0 1 0 0 0
POINTS 1447
DATA ascii
0.12510489 -0.04684953 1.4997221
0.13544255 -0.04684009 1.4988332
0.15620062 -0.046849791 1.4978383
0.17695612 -0.046856541 1.496559
0.20882693 -0.047030248 1.4995519
0.24057992 -0.0471357 1.4998966
0.29365742 -0.047286455 1.4986602
-0.030304838 -0.036407139 1.4998597
-0.019949511 -0.036384549 1.4990315
-0.0096068569 -0.036361367 1.4981326
0.052293133 -0.036306061 1.4952593
0.062684558 -0.036350816 1.496865
0.073100202 -0.036394984 1.498399
0.083429508 -0.036390543 1.4978651
0.093816653 -0.036409523 1.4982584
0.1040756 -0.03637993 1.4965857
0.11431593 -0.036349751 1.4948435
0.1248662 -0.036414966 1.4970173
0.13545129 -0.036479585 1.4991176
0.14587896 -0.036495633 1.499153
0.15631329 -0.036511105 1.499117
0.16653489 -0.036478058 1.4970217
0.18777408 -0.036577985 1.4995692
0.20843075 -0.036555834 1.4968663
0.21931762 -0.036639649 1.4993666
0.22964828 -0.036627155 1.4978353
0.29367587 -0.036827154 1.498947
0.30439678 -0.036858469 1.4988685
-0.019937314 -0.026032094 1.4982449
-0.0096073272 -0.026032701 1.4983457
0.042011816 -0.026012206 1.4967929
0.062646195 -0.026007948 1.4960787
0.1346563 -0.025962777 1.490368
0.14588603 -0.026128814 1.4993669
0.15611555 -0.026105557 1.4973416
0.16654293 -0.026116226 1.4972352
0.20857722 -0.02618904 1.4980707
0.21918486 -0.026214769 1.4985915
0.24013638 -0.026230732 1.4974351
0.25110629 -0.026289452 1.4997072
0.27211067 -0.026302958 1.4981084
0.34742087 -0.026474131 1.498009
0.011046603 -0.015692355 1.4974784
0.021313503 -0.015650472 1.4933683
0.031650465 -0.015670562 1.4951872
0.042013187 -0.015690401 1.4969351
0.052297391 -0.015678875 1.4956139
0.062772453 -0.015718939 1.4992181
0.072913244 -0.015675804 1.4947596
0.08343628 -0.015715355 1.4982204
0.093576871 -0.015682094 1.4946219
0.10408403 -0.015710769 1.496941
0.11440066 -0.0157081 1.4961958
0.12504083 -0.01574662 1.4993662
0.13519505 -0.015722731 1.4964859
0.15632588 -0.01576741 1.4994736
0.24014403 -0.015822204 1.4975786
0.25095081 -0.015847297 1.4988645
-0.12351453 -0.0053836694 1.4985602
-0.11273498 -0.0053633894 1.4933846
0.00072363915 -0.0053756516 1.4995903
0.011054088 -0.0053720539 1.4985502
0.0213986 -0.0053754654 1.4994391
0.031630043 -0.0053575025 1.4942591
0.04195834 -0.0053607412 1.4950078
0.072866216 -0.0053592958 1.4938323
0.083492696 -0.0053799204 1.4992909
0.093702108 -0.0053720861 1.4966899
0.10394842 -0.0053677135 1.4950179
0.12496061 -0.005383525 1.4984417
0.14589313 -0.0053918967 1.4995819
0.15602049 -0.0053835558 1.4965619
0.19825588 -0.005406003 1.499674
0.21890886 -0.0054025613 1.4968281
0.22937025 -0.0054042521 1.4962882
0.25095481 -0.0054215104 1.498937
0.28244424 -0.0054255696 1.4964333
0.2931326 -0.0054302849 1.4964347
-0.12286407 0.00494343 1.4905883
-0.11258599 0.0049443375 1.4913915
0.021398608 0.0049620294 1.4994406
0.052367449 0.0049578967 1.497686
0.062773511 0.0049640001 1.4992915
0.072914466 0.0049503776 1.4948328
0.083107464 0.0049432265 1.4923031
0.09364029 0.0049556363 1.4956932
0.10381114 0.0049483278 1.4930239
0.11425164 0.0049540317 1.4942747
0.12471385 0.0049596541 1.4954534
0.1349301 0.0049553826 1.4935712
0.22982033 0.0049983896 1.4992554
0.24030474 0.00499987 1.4986401
0.25046444 0.0049947519 1.4959788
0.3261179 0.0050382223 1.499896
-0.13331041 0.01525907 1.4916383
-0.12335002 0.015302463 1.4964994
-0.019924818 0.015279155 1.4973917
-0.0095886122 0.015259312 1.4954923
0.00072362798 0.015299813 1.4995224
0.011032013 0.015259279 1.4954827
0.021398267 0.015299284 1.4993714
0.062565483 0.015254879 1.4942271
0.072865091 0.015253262 1.4937649
0.083381332 0.015291777 1.4972265
0.093391418 0.015239205 1.491632
0.10429011 0.015327672 1.4999379
0.11462714 0.015325071 1.4991912
0.12504092 0.01533231 1.4993705
0.13528423 0.015319133 1.4974861
0.14502817 0.015255307 1.4905558
0.15571016 0.015292072 1.49351
0.16632962 0.015318503 1.4953945
0.18766634 0.015370602 1.4989386
0.19812314 0.015376133 1.4986145
0.20817459 0.015351221 1.4952464
0.21919209 0.015396533 1.4987392
0.26161635 0.015444475 1.4990923
0.27229646 0.015458366 1.4992406
-0.019937346 0.025618991 1.4982519
0.00072169438 0.025568997 1.4953835
0.031733271 0.02563473 1.4990506
0.04195635 0.025565578 1.4948009
0.052261181 0.025563693 1.4944795
0.062480673 0.025527557 1.4920897
0.072910987 0.025575599 1.4946244
0.083213568 0.025572481 1.4940919
0.093450293 0.025552042 1.4924909
0.10408081 0.025632648 1.4968058
0.11447258 0.0256452 1.4970573
0.12470792 0.025623534 1.4952446
0.13527995 0.025669066 1.4973464
0.14540701 0.025629697 1.4943976
0.15611582 0.025691288 1.4973488
0.16610551 0.025634238 1.4932669
0.18753743 0.025738429 1.4978057
0.19772765 0.02571396 1.4954997
0.20816803 0.025722841 1.4951062
0.22950961 0.025789967 1.4970683
0.25061625 0.025821729 1.4967551
0.26160821 0.025879107 1.4989516
0.27228802 0.025902383 1.4990996
0.28261489 0.025891604 1.4972068
0.2934998 0.0259309 1.498188
0.31514582 0.025991438 1.498937
0.32610291 0.026029488 1.4996837
0.36970535 0.026144009 1.4999329
-0.071512185 0.035910904 1.4954822
-0.019949555 0.035971232 1.4990417
-0.0095878439 0.035877086 1.4951435
0.00072118192 0.035853587 1.4941739
0.011031127 0.035877001 1.4951335
0.031668909 0.035898346 1.4958421
0.041954331 0.035872538 1.4945914
0.052431598 0.035988592 1.4992657
0.062519073 0.035842933 1.4928793
0.072955705 0.035910342 1.4954133
0.083319634 0.035929691 1.4958785
0.10380122 0.035871755 1.4926059
0.11469346 0.036055427 1.4998375
0.12494873 0.036025021 1.4980235
0.13482819 0.035899203 1.4921571
0.1458793 0.036081053 1.499163
0.15569782 0.035954144 1.4931604
0.1667541 0.036111064 1.499019
0.17673545 0.03603046 1.4948672
0.18715967 0.036044065 1.4946187
0.19758856 0.036057096 1.4942979
0.2080217 0.036069565 1.4939051
0.21802884 0.036010493 1.490472
0.22889879 0.036092818 1.4929031
0.24028222 0.036245465 1.4982181
0.25093144 0.036279272 1.4985161
0.2617662 0.036336143 1.4997245
0.27156764 0.036250718 1.4949516
0.29329583 0.036361612 1.496994
0.32608789 0.036523558 1.4994707
-0.019961441 0.046335377 1.4997603
-0.0095872283 0.046183616 1.4948636
0.021381056 0.046274032 1.4977415
0.031645924 0.04618042 1.4945624
0.042090453 0.046330571 1.499307
0.062556468 0.04617022 1.4935985
0.074370056 -0.22086975 1.4992337
0.083039157 0.046098601 1.490608
0.1037946 0.046176776 1.4923263
0.11468613 0.046413213 1.4995562
0.12461175 0.046251949 1.4937578
0.13508675 0.046303682 1.4948637
0.14596583 0.046476722 1.4998763
0.15620106 0.046435386 1.497851
0.17695662 0.046442077 1.4965718
0.19744636 0.046384912 1.4930254
0.208691 0.046583775 1.4985744
0.22978434 0.046644069 1.498551
0.24042387 0.046688326 1.4989225
0.2617498 0.046774626 1.4994409
0.2720814 0.046755873 1.49762
0.28276774 0.046797208 1.4976935
0.29344165 -0.21820357 1.5013467
0.35862488 0.047157049 1.4990019
0.011036832 0.056525167 1.4955027
0.031748097 0.056670919 1.4992077
0.042087078 0.056667659 1.4989557
0.052458607 0.056700863 1.4996321
0.062758431 0.056658395 1.4982404
0.073138028 0.056689776 1.4987751
0.083142541 0.056458671 1.492254
0.093556017 0.05652561 1.4936465
0.10385492 0.056516916 1.4929727
0.11407341 0.056469984 1.4912329
0.12493078 0.056720886 1.4973906
0.13489789 0.056560136 1.4925218
0.14528339 0.056585182 1.4925611
0.15598337 0.056721266 1.4955107
0.16618326 0.056669865 1.4934182
0.17624551 0.056580309 1.4902643
0.18750185 0.05686279 1.4969605
0.20840161 0.056902908 1.4962413
0.21828438 0.056772627 1.4918175
0.22886638 0.056827754 1.4922693
0.23962142 0.056919206 1.4936337
0.25040573 0.057009723 1.4949212
0.26172936 0.057210919 1.4990864
0.27152953 0.057076439 1.494315
-0.019957911 0.067008935 1.4989867
0.011028469 0.066789322 1.4940828
0.021405518 0.067008637 1.4989671
0.042027503 0.066913612 1.4965366
0.052315231 0.066864491 1.495216
0.06262821 0.0668585 1.4948241
0.1145151 0.067033269 1.4967893
0.12483658 0.067020826 1.4959729
0.13533014 0.067095622 1.497076
0.14584443 0.067169331 1.4981064
0.15637895 0.067241944 1.4990635
0.166605 0.06718114 1.4969685
0.17704192 0.067207508 1.4967889
0.18711518 0.067100555 1.4935629
0.20879124 0.067412451 1.4987868
0.21912307 0.067390516 1.4973271
0.22929467 0.067323528 1.4948094
0.24022567 0.067475639 1.4971567
0.25070906 0.067494623 1.4964683
0.26102412 0.067468576 1.4947225
0.2720347 0.067617409 1.4968396
0.00072188186 0.077139363 1.4946309
0.011034524 0.077138647 1.4945905
0.02137487 0.077238731 1.4964774
0.031657714 0.077133514 1.4942994
0.052343924 0.077225409 1.4957229
0.06274534 0.077320494 1.4973263
0.073026374 0.077261329 1.4958653
0.083235249 0.077149935 1.4933374
0.093907475 0.077445224 1.4987152
0.10431372 0.07748431 1.4990356
0.11450227 0.077369243 1.4962969
0.12498707 0.077456817 1.497471
0.13513699 0.077339336 1.4945934
0.14573236 0.077475376 1.4966186
0.15646413 0.077661067 1.4995629
0.16647707 0.077489056 1.4954821
0.17725457 0.077672213 1.498279
0.18783201 0.0777523 1.4990165
0.20822236 0.077603586 1.4943341
0.2190989 0.0777817 1.4968319
0.2395725 0.077676773 1.4927154
0.26150602 0.078024164 1.4971793
0.29395667 0.078332618 1.4993535
0.30449057 0.078348488 1.4982919
0.32618752 0.078528598 1.4988774
0.33673868 0.078540891 1.4975911
0.35875621 0.078764245 1.498685
0.011033107 0.087440066 1.4940293
0.021400357 0.087669171 1.4979116
0.031695511 0.08754988 1.4957341
0.042072877 0.087660491 1.4974785
0.052371774 0.08759623 1.4961585
0.062778674 0.087704018 1.4977609
0.073161587 0.087752551 1.4982942
0.083389595 0.087626286 1.4957663
0.093895428 0.087787613 1.4981514
0.11456307 0.087759279 1.4967293
0.12521777 0.087974079 1.4998921
0.13538678 0.087840885 1.4970137
0.14590539 0.087937333 1.4980421
0.15603389 0.087801449 1.4950255
0.16634656 0.087779678 1.4939258
0.17653523 0.087698847 1.4917643
0.18707076 0.087789737 1.4925063
0.21921444 0.088226832 1.4972539
0.25081354 0.088363089 1.4963902
0.26130319 0.088386595 1.4956278
0.30445281 0.088811859 1.4977214
0.00072454842 0.098126009 1.4994249
0.011075287 0.0981251 1.4993846
0.021340804 0.097734779 1.493287
0.042094547 0.098048292 1.4978427
0.052364212 0.097911835 1.4955255
0.06264548 0.097838446 1.4941361
0.073247418 0.098215826 1.4996541
0.08343257 0.098010048 1.4961296
0.10435396 0.098239921 1.4988323
0.11469741 0.098223299 1.4980851
0.12478875 0.098011427 1.4942838
0.13518937 0.098056287 1.4943912
0.14588448 0.098293215 1.4974068
0.15611413 0.098205872 1.4953839
0.16676019 0.098375067 1.4972594
0.17732291 0.098478138 1.4980687
0.18790434 0.09857963 1.4988042
0.20871218 0.09858457 1.4970881
0.21918339 0.098616958 1.4966166
0.2299577 0.098776616 1.4980459
0.25110492 0.098898038 1.4977208
0.26143652 0.098859958 1.4959725
0.29387906 0.099250965 1.4981419
-0.0096119987 0.10831577 1.4966949
0.00072347769 0.10831653 1.4967253
0.011066216 0.10838699 1.4976827
0.021422053 0.1084557 1.4985691
0.031685848 0.10816543 1.4943987
0.052390371 0.10829415 1.495819
0.062842287 0.10849875 1.4984161
0.073091134 0.10834447 1.4959595
0.083474219 0.10840274 1.4964218
0.093805097 0.10838785 1.4958168
0.10440589 0.10865681 1.499122
0.11482989 0.10870983 1.499369
0.12509763 0.10861836 1.4975562
0.13534582 0.10852522 1.495674
0.14557396 0.10843041 1.4937224
0.15598677 0.10847656 1.4936863
0.16629639 0.1084497 1.492587
0.1768304 0.10856376 1.4933989
0.18738315 0.10867603 1.494137
0.19821341 0.10892906 1.4967794
0.20908844 0.10918025 1.4993443
0.21857631 0.10871764 1.4919599
0.22902228 0.10875188 1.4914197
-0.0096356599 0.11894333 1.4999083
0.00072335015 0.11863115 1.4959512
0.011071555 0.11878656 1.4979047
0.021333618 0.11831407 1.4918129
0.031743035 0.11870041 1.4966158
0.041941676 0.11830239 1.491381
0.052415695 0.1186849 1.4960414
0.062913939 0.11898722 1.4996331
0.073222801 0.11889647 1.4981726
0.083624475 0.11896026 1.4986331
0.093788616 0.11870933 1.4950421
0.10431896 0.11892573 1.4973508
0.11428206 0.11851476 1.4916333
0.1250757 0.11896184 1.4967798
0.13532212 0.11885987 1.4948984
0.14583579 0.11899044 1.4959246
0.15626714 0.11904097 1.4958861
0.16681398 0.11916771 1.4967666
0.17726395 0.11921445 1.4965836
0.18784195 0.11933737 1.4973176
0.19817901 0.11930233 1.4960011
0.20891584 0.11949948 1.4975765
0.22958216 0.11942021 1.494585
0.32668236 0.11019093 1.4998732
0.36964852 0.11046244 1.4971735
-0.0096274698 0.12919432 1.4980652
0.00072511914 0.12928027 1.4990921
0.011062135 0.12902392 1.4960626
0.031716015 0.1289303 1.4947745
0.042155489 0.12926309 1.4985067
0.052405629 0.12899853 1.4951966
0.062901862 0.12932712 1.4987857
0.073208749 0.1292285 1.4973261
0.083553463 0.12921284 1.4967914
0.094079494 0.12945013 1.4991693
0.10402471 0.12892044 1.4925282
0.1147878 0.12940851 1.4977444
0.12480531 0.1290448 1.4929539
0.13556315 0.12944366 1.4970294
0.14571226 0.12924588 1.4940857
0.15572481 0.12896125 1.4900831
0.16667297 0.12943865 1.494928
0.17699818 0.12940468 1.4937557
0.18780637 0.12970805 1.4964683
0.19853026 0.12992442 1.4981154
0.21935584 0.12992699 1.4962517
0.29359314 0.12007304 1.4956661
0.32620659 0.12052954 1.4971362
-0.0096318014 0.13960923 1.4981441
0.011067124 0.13942525 1.4961431
0.021452012 0.13969727 1.4990191
0.031751249 0.13941598 1.4958508
0.042091269 0.13940801 1.4955988
0.052463818 0.13948965 1.4962716
0.073193543 0.13955437 1.4964092
0.083591089 0.13962927 1.4968688
0.093998261 0.13970198 1.4972572
0.10420883 0.13949707 1.4945936
0.1143119 0.13919829 1.4908686
0.12502597 0.13963135 1.4950157
0.13562408 0.1398786 1.4971029
0.14558649 0.13948162 1.4921776
0.15651271 0.13999946 1.4970921
0.18739945 0.13979775 1.4925835
0.19784179 0.13984835 1.4922571
0.24048072 0.13009104 1.49607
0.28301901 0.13047943 1.4957997
0.29391879 0.13067715 1.4967678
0.35940218 0.13165073 1.4989786
0.37046564 0.13183384 1.4993936
0.00072432903 0.14983481 1.4961917
0.021419009 0.14982969 1.4960408
0.031744145 0.14972489 1.4948645
0.042081852 0.14971635 1.4946126
0.062833399 0.14988931 1.4958858
0.073225334 0.14997217 1.4964159
0.16718504 0.14023988 1.4989585
0.17754202 0.14020312 1.4977826
0.21902494 0.14012611 1.493359
0.2615889 0.14065494 1.494669
0.27279827 0.1410557 1.4977491
0.28351212 0.14118004 1.4978101
-0.009642317 0.15012971 1.4991468
0.052521143 0.15000127 1.4972738
0.094162524 0.15032786 1.4992484
0.11488917 0.15027964 1.4978223
0.13550505 0.15012346 1.4951222
0.16725729 0.15070854 1.4989555
0.1775028 0.15057066 1.4967908
0.18797198 0.15062729 1.4965322
0.19844587 0.15068154 1.496201
0.21926294 0.15068476 1.4943373
0.25184897 0.15150702 1.4993496
0.26238155 0.1515471 1.4985766
0.27256233 0.15138869 1.4957718
0.28271717 0.15122813 1.4928987
0.011069282 0.1601427 1.4950943
0.021470267 0.16056037 1.4989607
0.042071782 0.16001756 1.4935561
0.062818378 0.16020246 1.4948281
0.07320784 0.16029105 1.4953575
0.083607413 0.16037709 1.4958158
0.094016582 0.16046055 1.4962025
0.10464046 0.16085747 1.4994942
0.1149371 0.1607251 1.4977531
0.12546104 0.16090617 1.4989157
0.13511728 0.16003181 1.490101
0.15623601 0.16048668 1.4930626
0.16678078 0.16065758 1.4939382
0.17711285 0.16061555 1.4927653
0.18780483 0.16088654 1.4944824
0.1983991 0.16104975 1.4951379
0.20873863 0.16100022 1.4937491
0.24126168 0.16188695 1.4989808
0.26215047 0.16187038 1.4965273
0.29372784 0.16198459 1.4937723
0.00072683045 0.17111912 1.4999689
0.011102885 0.17100537 1.4989347
0.021450697 0.17077667 1.4968364
0.042255007 0.17109652 1.4993823
0.062761053 0.17039581 1.492707
0.073092952 0.17037798 1.4922436
0.083531216 0.17058177 1.4936943
0.09423954 0.17123133 1.4990398
0.10433985 0.17075682 1.4943961
0.11490794 0.17106444 1.4966215
0.12559342 0.17148137 1.4997635
0.13597175 0.17144722 1.4988712
0.1464393 0.17152241 1.4988974
0.15681109 0.17148291 1.4978629
0.16706629 0.17132875 1.49577
0.17764799 0.17150789 1.4965688
0.19860819 0.17163418 1.4959743
0.21972837 0.17186162 1.4960735
0.25107479 0.17190337 1.493219
0.30516246 0.17299892 1.496437
0.00072711013 0.18157241 1.4997591
0.021444889 0.1810903 1.4956362
0.031740755 0.18072595 1.4924766
0.042188179 0.18119156 1.4961948
0.062785402 0.18080547 1.4925017
0.073265634 0.18114339 1.4950132
0.083563566 0.18100266 1.4934866
0.094214119 0.18157257 1.4978364
0.10458568 0.18154499 1.4971582
0.11472644 0.18115795 1.4934391
0.13575751 0.18156403 1.4956886
0.14620876 0.1816439 1.4957154
0.15676904 0.18183964 1.4966577
0.16713074 0.18179503 1.495553
0.17736867 0.1816289 1.4933913
0.18795285 0.18181607 1.4941168
0.20917544 0.18218173 1.4953452
0.23076643 0.1827729 1.4982395
0.24066851 0.18235311 1.493688
0.25182396 0.18287843 1.4969081
0.29509744 0.18376574 1.4992166
0.31685656 0.184192 1.4999073
0.00072690198 0.19190492 1.498485
0.01108942 0.19152589 1.4954684
0.02150918 0.19202411 1.4993253
0.031898793 0.19201629 1.4991432
0.042231493 0.19175389 1.4969068
0.052707445 0.19211715 1.4995575
0.062891342 0.19147156 1.4942068
0.073485173 0.19208014 1.4986969
0.083923936 0.19218275 1.4991506
0.094187252 0.19190527 1.4965625
0.1252778 0.19180897 1.4943166
0.13616304 0.19252439 1.4993551
0.14607166 0.19185539 1.4934535
0.15682699 0.19231343 1.4963688
0.16751997 0.19264278 1.4982218
0.17755032 0.19221619 1.4940875
0.20979731 0.19317663 1.4989808
0.22032267 0.19323985 1.4984957
0.2304025 0.19292429 1.4949956
0.27369541 0.19401199 1.4988823
0.30617732 0.19463907 1.4997683
0.36004177 0.19529125 1.4971211
0.00072763511 0.2024934 1.499123
0.011093354 0.20196147 1.4951179
0.021488613 0.20222148 1.496989
0.03186829 0.20221324 1.4968071
0.052657079 0.20231959 1.4972212
0.062831111 0.20163929 1.4918748
0.07355921 0.20267805 1.4993311
0.083788946 0.2022564 1.4958251
0.09415894 0.20222896 1.4952179
0.10479828 0.202728 1.4984955
0.11480983 0.20203216 1.4928035
0.1255683 0.20265709 1.4969238
0.13603349 0.20274925 1.4970192
0.14641024 0.20270592 1.4960557
0.15678014 0.20265944 1.4950215
0.16692448 0.20234533 1.4919462
0.17749742 0.20255716 1.492741
0.18845695 0.20316228 1.4964129
0.24178044 0.20415623 1.4988891
0.27326226 0.2041868 1.4955719
0.28454331 0.20476191 1.498543
0.31667683 0.20515017 1.49725
0.00072835654 0.21309939 1.4996867
0.011126222 0.21295819 1.4986562
0.031816438 0.21224786 1.4934123
0.042150043 0.2120966 1.4921701
0.052605938 0.21249898 1.4948161
0.073584005 0.2131543 1.4989023
0.083872162 0.21285036 1.4963874
0.094190843 0.21268234 1.4947915
0.10469677 0.21292855 1.4960893
0.11499925 0.21275388 1.4943521
0.12561074 0.21313243 1.4964929
0.1361682 0.21336843 1.4975731
0.14645977 0.21318385 1.4956231
0.15714014 0.21355215 1.4975436
0.16719934 0.21308295 1.4934834
0.17732599 0.21274969 1.4903401
0.18864317 0.21380259 1.4969567
0.19915429 0.21387942 1.4966161
0.20980576 0.21409182 1.4971838
0.22076005 0.21457838 1.499637
0.24154922 0.21443124 1.4964826
-0.0096672811 0.2232828 1.4971778
0.011122525 0.22328234 1.4971681
0.02150281 0.22313075 1.4960676
0.031972833 0.22370577 1.4998417
0.042246711 0.22296305 1.4946436
0.084063716 0.22375332 1.4988512
0.094406143 0.22357711 1.4972547
0.10493577 0.2238352 1.4985491
0.115262 0.22365208 1.4968114
0.12556925 0.22346546 1.4950037
0.13603455 0.22356716 1.495097
0.14622048 0.22322789 1.4921641
0.17773096 0.22364743 1.4927838
0.19934765 0.22454056 1.4970833
0.22011702 0.22440031 1.4942213
0.24162686 0.22497381 1.495961
0.25217146 0.22503713 1.4952527
0.26322675 0.22553298 1.4973955
0.00072738575 0.23359811 1.4956501
0.011125932 0.23374879 1.4965979
0.021481272 0.2332847 1.493522
0.031961724 0.23403904 1.4982803
0.042397983 0.23417865 1.4990147
0.052811366 0.2341617 1.4986898
0.063263498 0.23429388 1.4992813
0.073630162 0.2341169 1.4978274
0.08414422 0.23439436 1.499263
0.094311856 0.23375204 1.4947081
0.10476268 0.23386948 1.495015
0.11544764 0.23444113 1.4982066
0.12568976 0.23409332 1.4954138
0.13651986 0.23481005 1.4994423
0.14664748 0.23430246 1.4955245
0.15744328 0.23485905 1.4984206
0.16774088 0.23464939 1.4963287
0.021529734 0.24421182 1.4958439
0.031929281 0.24420193 1.4956614
0.052861121 0.24480857 1.4990305
0.063281819 0.2447871 1.4986341
0.073699549 0.24476179 1.498167
0.084223382 0.24505149 1.4995998
0.094585665 0.2448591 1.4980046
0.23373075 -0.2702677 1.5092906
0.24408031 -0.27000123 1.506687
0.25538138 -0.27076575 1.5098429
0.27691686 -0.27107471 1.5091211
0.28669122 -0.27027556 1.5033232
0.29829323 -0.27119496 1.5071306
0.30937374 -0.2715933 1.5079546
0.32007489 -0.27164316 1.5067703
0.18024303 -0.26946703 1.5095199
0.20060293 -0.26845241 1.5020347
0.22278695 -0.2698397 1.507926
0.2980282 -0.2603367 1.5070101
0.30890325 -0.26055411 1.506873
0.31979114 -0.26076749 1.5066589
0.34160346 -0.26118228 1.505998
0.021661846 -0.25659356 1.5039326
0.032062668 -0.25608364 1.5007915
0.052943636 -0.25605088 1.5002116
0.063545451 -0.25669435 1.5037556
0.074102581 -0.25700074 1.5052562
0.084847681 -0.2578024 1.5096376
0.095164165 -0.25726852 1.5060705
0.10577717 -0.2575627 1.5073528
0.11618701 -0.25735369 1.5056123
0.12665975 -0.25730711 1.504784
0.14768238 -0.25736833 1.5038942
0.18984495 -0.25760919 1.5022287
0.20080987 -0.25819916 1.5048083
0.21168353 -0.2586188 1.5063326
0.22173229 -0.2580387 1.5019252
0.23337303 -0.25927985 1.5081748
0.24386229 -0.25918955 1.5065463
0.25385234 -0.25859821 1.5019284
0.26497665 -0.25916341 1.5040466
0.27526188 -0.25889608 1.501232
0.2869837 -0.25994974 1.5061014
0.3090165 -0.25001952 1.5086157
0.31990814 -0.25022408 1.5084031
0.33081213 -0.25042486 1.508113
-0.030711845 -0.2465332 1.5074681
-0.020191429 -0.24606326 1.5046804
0.011201693 -0.24622807 1.5057597
0.021641914 -0.2459024 1.5036737
0.03213736 -0.24621199 1.5054641
0.042520225 -0.24571888 1.5022489
0.053066954 -0.24618043 1.5048828
0.063487008 -0.2459991 1.5034988
0.073794484 -0.24549454 1.5000722
0.094769001 -0.24575159 1.5008935
0.10520181 -0.24571466 1.5002114
0.11570483 -0.24583356 1.5004425
0.12637977 -0.24626778 1.502569
0.13682339 -0.24621928 1.501671
0.14754695 -0.24664564 1.5036496
0.15820201 -0.24690849 1.5045711
0.16844091 -0.24652953 1.5014938
0.18991585 -0.24719538 1.503951
0.20062634 -0.24744268 1.5045769
0.21081091 -0.24704896 1.5012169
0.22167207 -0.24744786 1.5026734
0.23316088 -0.24847956 1.5079564
0.25394624 -0.24814357 1.5036575
0.26524395 -0.24884471 1.5067519
0.27659658 -0.24954168 1.5097632
0.29794812 -0.24965227 1.5077822
-0.051721413 -0.2362608 1.50954
-0.041206431 -0.23612426 1.5088691
-0.030583624 -0.2350658 1.5021983
0.021579437 -0.23476769 1.5003752
0.05298287 -0.23534007 1.5035641
0.063345075 -0.23501337 1.5011921
0.073773205 -0.23498908 1.5007247
0.084197842 -0.23496102 1.5001856
0.09474171 -0.2352352 1.5015483
0.10523987 -0.23535272 1.5018523
0.11574664 -0.23546651 1.5020841
0.12617961 -0.23542373 1.5012589
0.15825893 -0.23649576 1.50622
0.16850145 -0.23613271 1.5031402
0.17882486 -0.23591891 1.5009735
0.20018126 -0.23639651 1.5023104
0.21102224 -0.2367823 1.5038459
0.2216085 -0.23685916 1.5033482
0.24325879 -0.23745938 1.5050611
0.25322223 -0.23691583 1.5004412
0.26482934 -0.23789217 1.5054933
0.27475587 -0.23734182 1.5007329
0.2855444 -0.23754928 1.5007648
0.297674 -0.23881787 1.5075103
0.30814388 -0.23871341 1.5054429
0.31920877 -0.23906153 1.5062058
0.33008972 -0.23925392 1.5059228
-0.030554427 -0.22441328 1.5017884
-0.020153316 -0.22471453 1.5039397
0.00073191174 -0.22501378 1.5060507
0.011173293 -0.22471911 1.5040317
0.032014135 -0.22441183 1.5017587
0.052828982 -0.22423667 1.500191
0.063367106 -0.2246557 1.5027601
0.073750786 -0.22448617 1.5013043
0.084227078 -0.22460555 1.5017532
0.11571155 -0.22494242 1.5026687
0.12622325 -0.22504757 1.5028296
0.13683134 -0.22529535 1.5039035
0.14774661 -0.22597772 1.5078577
0.15790446 -0.22548798 1.5038623
0.16855952 -0.22572498 1.5047159
0.18919148 -0.22531268 1.5003099
0.20024994 -0.22597684 1.5038879
0.21095851 -0.22619964 1.5044457
0.22111329 -0.22583568 1.5010129
0.23257627 -0.22678028 1.5063145
0.24381025 -0.22742939 1.5095764
0.25379708 -0.22690953 1.5049496
0.27555418 -0.22746165 1.5062109
0.285824 -0.2272232 1.5033226
0.29739517 -0.2279994 1.5071622
0.30824775 -0.22819024 1.5070362
0.31972218 -0.22881344 1.5097384
0.33041018 -0.22885182 1.508487
0.35133573 -0.22862847 1.5038327
-0.040913798 -0.21362616 1.5000703
-0.0096893432 -0.2137904 1.5015785
0.01116246 -0.21406902 1.5035489
0.021622293 -0.2143428 1.5054175
0.032087419 -0.21447361 1.5062242
0.084309898 -0.21437907 1.5042387
0.12634704 -0.21480042 1.5053163
0.13669905 -0.21461852 1.5034325
0.14750877 -0.21513006 1.5064069
0.15754731 -0.21452361 1.501425
0.17859776 -0.21469396 1.5011003
0.18925363 -0.21491335 1.5018117
0.20044492 -0.2156859 1.5063758
0.21089156 -0.21562004 1.5049726
0.22218518 -0.21638535 1.5093778
0.23265219 -0.21631275 1.507826
0.24295229 -0.216098 1.5052251
0.25387964 -0.2164358 1.5064621
0.26483572 -0.21677017 1.5076213
0.28683171 -0.21742837 1.5097038
0.29711175 -0.21719745 1.5067384
0.30854344 -0.21779534 1.5095284
0.31840351 -0.21728098 1.5044788
0.32925797 -0.21745646 1.5042058
0.34077337 -0.21804394 1.5067549
0.35122505 -0.2179358 1.5043929
-0.0096987486 -0.20356919 1.5039928
0.032014079 -0.20355535 1.5036883
0.042356659 -0.20314547 1.5004619
0.052828848 -0.20339629 1.5021187
0.063243158 -0.20337832 1.5017227
0.11548552 -0.20363842 1.5016429
0.13656457 -0.20395869 1.5028868
0.14698184 -0.20391509 1.5019196
0.15749456 -0.20400089 1.5018672
0.16801342 -0.20408349 1.5017424
0.18943556 -0.2046365 1.5042261
0.19986086 -0.204577 1.502898
0.22154027 -0.20524281 1.505914
0.24302782 -0.20563081 1.5066638
0.25346941 -0.20555554 1.50497
0.26389945 -0.20547733 1.5032049
0.2751995 -0.20605652 1.5062459
0.28600469 -0.20623609 1.5062805
0.29625434 -0.20601654 1.5033203
0.30706662 -0.20618989 1.5032061
0.32977828 -0.20718607 1.5075918
0.34066102 -0.20734963 1.5072398
0.35043979 -0.20685166 1.501981
-0.0096763661 -0.19269471 1.5013781
0.011169382 -0.1933244 1.5063281
0.031961083 -0.19280763 1.5020663
0.042369459 -0.19279668 1.5018126
0.083977833 -0.19272235 1.5000886
0.11529448 -0.19288652 1.5000292
0.14712152 -0.19365247 1.5042628
0.15754171 -0.19360799 1.5032234
0.1678454 -0.19343476 1.5011271
0.17882308 -0.19401304 1.504873
0.18936938 -0.19408524 1.5046018
0.19953217 -0.19377743 1.5013072
0.21006715 -0.19384371 1.5008931
0.22089162 -0.19415818 1.5023699
0.23264398 -0.19522274 1.509654
0.24309972 -0.19515416 1.5080311
0.25338119 -0.19495718 1.5053581
0.26380745 -0.19488287 1.5035937
0.27439812 -0.19493103 1.5027344
0.28553918 -0.19535224 1.5047268
0.29577163 -0.19514391 1.5017689
0.32966447 -0.19650418 1.5080001
0.34075999 -0.19678436 1.5086191
0.35076451 -0.1964366 1.5043238
-0.051501557 -0.18302371 1.5077791
-0.04092415 -0.1824404 1.5031322
-0.030552439 -0.18268888 1.5053616
0.00072948437 -0.1825821 1.5046737
0.10485848 -0.18243501 1.5010707
0.11525211 -0.18240441 1.5003197
0.12580442 -0.18260923 1.501477
0.17875782 -0.18347022 1.5051749
0.18954565 -0.18377639 1.5068758
0.19958855 -0.18336608 1.5025936
0.21039876 -0.18366647 1.5041471
0.23151217 -0.1837831 1.5030975
0.24269879 -0.18431219 1.5063853
0.25345218 -0.18448199 1.5066525
0.26371142 -0.18429293 1.5039096
0.27482775 -0.18469433 1.5059832
0.28580192 -0.18497409 1.507
0.29642349 -0.18501388 1.5059888
0.30665192 -0.18481392 1.5029571
0.31725961 -0.18484828 1.5018008
0.32975551 -0.18594517 1.5093055
0.3402043 -0.18585527 1.507019
-0.040828232 -0.17162395 1.5003685
-0.030441036 -0.17163333 1.5006117
-0.020078667 -0.17186493 1.5027709
0.031916223 -0.17174466 1.5015752
0.052701715 -0.17172237 1.500998
0.063132249 -0.17181957 1.5015959
0.083914757 -0.17178088 1.5005924
0.09448541 -0.1720947 1.50296
0.11535852 -0.17215201 1.5025196
0.12592044 -0.17234513 1.5036777
0.13650355 -0.17253545 1.5047626
0.16761053 -0.17230402 1.5006616
0.17880574 -0.17304455 1.506391
0.18898278 -0.1727723 1.5031636
0.22086975 -0.17317359 1.5038933
0.23157373 -0.17333926 1.5043157
0.2418247 -0.17316619 1.5017191
0.25270364 -0.17343846 1.5029743
0.263951 -0.17393178 1.5061103
0.27437058 -0.17386273 1.5042738
0.2847777 -0.17379116 1.5023662
0.29631147 -0.17438777 1.50624
0.30692896 -0.17442264 1.5051565
0.31754595 -0.17445487 1.5039991
-0.051461544 -0.16200463 1.5081468
-0.040865432 -0.161382 1.502498
-0.030448822 -0.16128513 1.5017473
-0.020110091 -0.1617142 1.5058969
-0.0097032497 -0.16192929 1.5079873
0.00072796224 -0.1614019 1.5030457
0.042348512 -0.16148624 1.5034524
0.05268066 -0.16126309 1.5011404
0.073447764 -0.16123186 1.5002798
0.083936177 -0.16142371 1.5017292
0.11531257 -0.16166675 1.5026672
0.13618264 -0.16171034 1.5019423
0.16787136 -0.1621259 1.5037783
0.18866223 -0.16203859 1.5013462
0.19943318 -0.16230743 1.5029815
0.24235454 -0.16304041 1.5058111
0.26316729 -0.16291808 1.5023619
0.27390903 -0.16306357 1.5024881
0.28466505 -0.16320653 1.5025388
0.3072015 -0.16400987 1.5072858
0.31742096 -0.16383015 1.5041804
0.35081494 -0.16464007 1.507053
-0.040902011 -0.15111881 1.5045584
-0.030456137 -0.1509293 1.5028124
-0.020049186 -0.15083626 1.5019897
-0.0096675688 -0.15093862 1.5030861
0.00072861393 -0.15113749 1.5051067
0.021517515 -0.1509345 1.5029649
0.031890228 -0.15082937 1.5017877
0.042358682 -0.15111746 1.5045189
0.052762363 -0.1511064 1.5041941
0.063039511 -0.15079632 1.5008162
0.073513515 -0.15097825 1.5023385
0.094532117 -0.15133475 1.5051665
0.10480154 -0.15111402 1.5025005
0.17808123 -0.15147857 1.5016913
0.21001236 -0.15193719 1.5036427
0.22011907 -0.15169096 1.5002049
0.23123695 -0.15213232 1.5035869
0.241942 -0.15227556 1.5039393
0.25282598 -0.15251486 1.5051982
0.26322889 -0.15245643 1.5034379
0.27414966 -0.15269092 1.5045446
0.28528142 -0.15302126 1.506551
0.29531357 -0.15275925 1.5026151
0.30668265 -0.15318306 1.5054424
0.31810462 -0.15360419 1.508185
0.33937138 -0.15365364 1.5056435
0.36155066 -0.15408613 1.5066781
-0.051317517 -0.14073277 1.5052394
-0.040884417 -0.14065064 1.5045589
-0.030562785 -0.14102682 1.5087844
-0.020066837 -0.14057173 1.503979
-0.0096507296 -0.14029859 1.5010933
0.011147223 -0.14085099 1.5070578
0.05263605 -0.14036278 1.5012091
0.073385522 -0.14033553 1.5003494
0.13597865 -0.14066038 1.5010316
0.14663811 -0.14090598 1.5030422
0.17800464 -0.14098549 1.5017002
0.18874866 -0.141222 1.503415
0.19939485 -0.14136434 1.5040666
0.22059676 -0.14155044 1.5041608
0.24199511 -0.14181939 1.5049427
0.25255486 -0.14185879 1.5042385
0.26311642 -0.14189602 1.503461
0.27438611 -0.14229764 1.5065305
0.28479341 -0.14223887 1.5046231
0.29556781 -0.14236109 1.5045992
0.30714262 -0.14284718 1.508404
0.31776658 -0.14287341 1.5072474
0.3283895 -0.14289752 1.5060171
0.35007739 -0.14312203 1.5052743
0.36162823 -0.14350492 1.507694
-0.040892944 -0.13027467 1.505483
-0.030489298 -0.13028182 1.5057266
-0.02004472 -0.13003093 1.5029103
-0.0096780956 -0.13028988 1.5060004
0.073737949 -0.13057978 1.5082378
0.083992548 -0.13030814 1.5047146
0.094449401 -0.13037555 1.5051007
0.10477816 -0.13027035 1.5034268
0.11508834 -0.13016313 1.501683
0.12554379 -0.13022436 1.5018556
0.14647698 -0.13034055 1.5019845
0.16754599 -0.13053362 1.5028155
0.17838953 -0.13083987 1.5055954
0.20942008 -0.13063973 1.5006384
0.22021264 -0.13085248 1.5021325
0.24157476 -0.13110167 1.5029223
0.2739116 -0.13154478 1.5045236
0.28540131 -0.1319994 1.5084958
0.29581764 -0.13194287 1.5065129
0.30622056 -0.13188444 1.5044589
0.31783047 -0.13233243 1.5081865
0.32803509 -0.13218534 1.5050081
0.36124009 -0.13274801 1.5066983
0.00072654453 -0.1299495 1.5020458
0.042325646 -0.12499031 1.5048746
0.1677966 -0.12028726 1.5056523
0.19921446 -0.12034348 1.5038761
0.22011121 -0.12034555 1.5020031
0.24146374 -0.12057485 1.5027966
0.26270923 -0.12071837 1.5023074
0.27466998 -0.12137312 1.50931
0.28398705 -0.12085444 1.501521
0.29549256 -0.12127087 1.50542
0.3056871 -0.12113914 1.5023911
0.31788951 -0.12178537 1.5090533
0.32809588 -0.12164995 1.505874
0.33870789 -0.12166867 1.5045729
0.35088247 -0.12223057 1.5099986
-0.040927619 -0.11997097 1.507333
-0.030455235 -0.11974201 1.5045867
-0.020048589 -0.11966816 1.503762
-0.0096482672 -0.11951385 1.5018696
0.00072620757 -0.11951469 1.5019001
0.011100647 -0.11951359 1.5018597
0.021474553 -0.11951058 1.5017486
0.03186835 -0.11958417 1.5025635
0.052657172 -0.11964706 1.5029832
0.062954843 -0.11947936 1.5005963
0.073318601 -0.11946679 1.5001316
0.094220407 -0.11967134 1.5019748
0.10452396 -0.11957455 1.5003021
0.18820918 -0.11998722 1.5002532
0.24197537 -0.11034159 1.5065389
0.25237074 -0.11030078 1.5048525
0.26292455 -0.1103297 1.5040781
0.27436367 -0.11071365 1.5081391
0.28532016 -0.1108817 1.5091728
0.29459223 -0.11040647 1.5013157
0.30593619 -0.11071372 1.5041596
0.31774014 -0.11116148 1.5088719
0.32815176 -0.11110897 1.5066684
0.33854854 -0.11105487 1.5043938
0.34893012 -0.11099921 1.5020478
0.36159784 -0.11165272 1.5093366
-0.03038073 -0.10908023 1.5013793
-0.020012666 -0.10908449 1.5015512
-0.0096372953 -0.10901528 1.5006549
0.00072633609 -0.10915947 1.5026802
0.021478357 -0.10915571 1.5025287
0.042170741 -0.10900152 1.5000998
0.07333155 -0.10911568 1.5009114
0.094422422 -0.1095175 1.5057424
0.11513072 -0.10941056 1.5033177
0.16749795 -0.10965016 1.503463
0.17799029 -0.10969286 1.5032758
0.18824199 -0.10959078 1.501036
0.19886029 -0.1097016 1.5016947
0.22014941 -0.10991795 1.5027883
0.23066948 -0.10995206 1.5022373
0.27458337 -0.10026979 1.5098405
0.3284128 -0.10062727 1.5083661
0.33925155 -0.10070702 1.5080377
-0.030345669 -0.098597474 1.5000929
0.011089812 -0.098668292 1.5013536
0.021467702 -0.098730691 1.5022403
0.031858195 -0.09879154 1.5030563
0.083707057 -0.098747335 1.5010848
0.094375782 -0.099058121 1.5054582
0.10469636 -0.098978072 1.5037832
0.11499835 -0.098896481 1.5020385
0.14674568 -0.099290587 1.5063196
0.18827188 -0.099189147 1.5017482
0.19863246 -0.099159971 1.5004284
0.20966579 -0.099452823 1.5039809
0.22004107 -0.09942051 1.5025151
0.23055595 -0.099451378 1.5019653
0.24123026 -0.099545352 1.5023282
0.26279572 -0.099793158 1.5038118
0.28408012 -0.099905498 1.5030271
0.29444796 -0.099862628 1.5010537
0.36147326 -0.090394817 1.5097445
-0.019992474 -0.088256851 1.5009021
0.00072512659 -0.088259503 1.5010334
0.011091422 -0.088316798 1.5019916
0.021456704 -0.088314556 1.5018803
0.031800017 -0.088252813 1.5007006
0.073257588 -0.088282101 1.5002648
0.094203986 -0.088491492 1.5031095
0.11501496 -0.088520974 1.5026778
0.17757954 -0.088633701 1.5006641
0.19879052 -0.088814624 1.5020595
0.22021557 -0.089047752 1.5041459
0.2305887 -0.089017451 1.5026082
0.24095114 -0.088985823 1.5009997
0.26334319 -0.089496739 1.5074081
0.27373794 -0.089460932 1.5055761
0.28448719 -0.089539342 1.5056357
0.30642048 -0.089807421 1.5074843
0.31742668 -0.089939289 1.5082902
0.32803801 -0.089954399 1.5070648
0.33864793 -0.089968182 1.5057656
0.34880874 -0.089865416 1.5024461
-0.0096414955 -0.077961214 1.5025686
0.00072474295 -0.077859171 1.5006016
0.011085558 -0.077909753 1.5015602
0.031804122 -0.077904552 1.5012674
0.094092473 -0.078012697 1.5016842
0.10458771 -0.078103215 1.5029995
0.15687379 -0.078280725 1.5035154
0.17771834 -0.078291818 1.502225
0.22010025 -0.078554973 1.5037292
0.23046793 -0.078528233 1.5021924
0.25166085 -0.078624383 1.5018622
0.26269573 -0.078798212 1.5040464
0.28415567 -0.078937933 1.5042474
0.29433578 -0.078853026 1.5012928
0.30606478 -0.079174623 1.506103
0.31746617 -0.079392903 1.508868
-0.030397398 -0.067641936 1.503791
-0.02002365 -0.067644596 1.503963
0.042166118 -0.067548655 1.5015112
0.10453086 -0.067680329 1.5025003
0.11504269 -0.067757726 1.5037442
0.12549394 -0.067789577 1.5039195
0.13595282 -0.067820355 1.504023
0.22012468 -0.068116389 1.5042297
0.23049344 -0.068093188 1.5026925
0.24100816 -0.068113245 1.5020714
0.26221418 -0.068194486 1.501595
0.28418684 -0.068448372 1.50475
0.29455832 -0.068418927 1.502776
0.30531028 -0.068476856 1.5026898
0.31688976 -0.068710357 1.5064394
0.32790405 -0.068810217 1.5071718
0.33829257 -0.068776637 1.5048989
0.37173459 -0.069110595 1.50736
-0.040800449 -0.057307452 1.5049733
-0.030400356 -0.057272971 1.5042173
0.0007258504 -0.057239279 1.5035217
0.063006587 -0.057297572 1.5042155
0.094174035 -0.057314269 1.5036048
0.18811594 -0.057465386 1.5019034
0.19872722 -0.057523526 1.5025665
0.2093562 -0.057580754 1.5031552
0.23021539 -0.057579894 1.5011454
0.24071759 -0.057596896 1.5005265
0.25187588 -0.057762954 1.5037783
0.28329557 -0.057768404 1.50027
0.31671572 -0.058139995 1.5058941
0.32793462 -0.058261927 1.5076053
0.33854103 -0.058270831 1.5063076
0.35928714 -0.05821145 1.5015455
0.37082109 -0.058367018 1.5039122
-0.030422805 -0.04693206 1.505572
-0.020014049 -0.046872228 1.5037452
0.042312447 -0.046990708 1.5072875
0.06288749 -0.046828881 1.5015749
0.093996108 -0.046842579 1.5009676
0.14654048 -0.047076233 1.5058334
0.16729011 -0.047053564 1.5036923
0.18813094 -0.047058735 1.50226
0.19848359 -0.047044847 1.5009413
0.2197334 -0.047137845 1.502049
0.23008364 -0.047121771 1.5005146
0.25140542 -0.047210291 1.5011785
0.26208943 -0.04725343 1.501398
0.2738497 -0.047479857 1.5074447
0.2833178 -0.047306821 1.5006284
0.30575675 -0.047541097 1.5054407
0.31694409 -0.047641717 1.5072334
0.32690829 -0.047557916 1.5030812
0.33835033 -0.047687631 1.5056937
0.34894893 -0.047694229 1.5043236
0.35954526 -0.047700133 1.5028796
0.37156057 -0.047888588 1.5071877
0.0007259564 -0.036505725 1.5041614
0.011082207 -0.036457356 1.5021217
0.021467121 -0.036504466 1.5040098
0.031836394 -0.036502954 1.5038282
0.042287424 -0.036572888 1.5065734
0.17789702 -0.036684066 1.5047867
0.19849628 -0.036639035 1.5012268
0.24090865 -0.036757596 1.5021574
0.26227617 -0.036825344 1.5026698
0.27298236 -0.036858346 1.502813
0.2833356 -0.03684302 1.5009154
0.31655648 -0.037056133 1.505565
0.32734939 -0.037086222 1.5053244
0.33837131 -0.037139572 1.505983
0.34829944 -0.037073269 1.5016899
0.35933712 -0.037125494 1.5021962
-0.030466249 -0.026203014 1.5080702
0.0007240813 -0.02606727 1.5003757
0.01110465 -0.026153002 1.5053346
0.021496417 -0.026169533 1.5062232
0.031775106 -0.026082477 1.5010428
0.052572384 -0.026130624 1.5034658
0.073200196 -0.026091132 1.5006095
0.083598673 -0.026105136 1.501073
0.094130456 -0.026153084 1.5034612
0.10435528 -0.026114695 1.5007885
0.11500061 -0.026178975 1.5040294
0.1252013 -0.02613976 1.5012164
0.17802179 -0.026280867 1.5059946
0.18815205 -0.026239216 1.5027602
0.1985058 -0.026231464 1.5014412
0.23025925 -0.026291464 1.5020039
0.26211843 -0.026347734 1.5019002
0.28334898 -0.02637749 1.5011312
0.29521236 -0.026502827 1.5070152
0.30539623 -0.026473945 1.5039855
0.3165713 -0.026530053 1.505782
0.32820633 -0.026619857 1.5094514
0.33817005 -0.026572732 1.5052243
0.35981458 -0.026613783 1.5043596
0.37207469 -0.026735876 1.5096394
-0.019964302 -0.015723141 1.5003868
-0.0096203322 -0.015723508 1.5004879
0.00072458258 -0.015733987 1.5015182
0.14598657 -0.015771085 1.5005049
0.16709544 -0.015804891 1.5023478
0.18791212 -0.015806636 1.5009189
0.19864193 -0.01583299 1.5025761
0.20899343 -0.015828073 1.5011857
0.21990818 -0.015864251 1.5036831
0.23026663 -0.01585884 1.5021476
0.26263741 -0.015923735 1.5050002
0.27353472 -0.015948294 1.5061257
0.28335798 -0.015910722 1.5012754
0.29407966 -0.015924484 1.5012702
0.30560285 -0.015979204 1.5051106
0.31576639 -0.015961556 1.5020113
0.32674381 -0.015984859 1.502754
0.33839771 -0.016038775 1.506346
0.34899768 -0.016040986 1.5049759
0.3600561 -0.016063523 1.5054783
0.37137529 -0.016096076 1.5068715
-0.019990971 -0.0053861351 1.5024588
-0.0096458765 -0.0053933556 1.5045599
0.052505784 -0.0053851791 1.5016822
0.11470437 -0.0053880699 1.5002562
0.13573161 -0.0054001557 1.5025338
0.24093166 -0.0054305918 1.5025892
0.26179051 -0.0054300074 1.5001462
0.27283138 -0.0054419446 1.5022618
0.30481955 -0.0054525374 1.5012622
0.3159751 -0.0054641208 1.5030632
0.32695937 -0.005472092 1.503805
0.33840302 -0.0054870145 1.5064192
0.34810832 -0.0054737008 1.501151
0.35960102 -0.0054884492 1.5036055
0.37185505 -0.0055136448 1.508888
-0.019964639 0.0049653277 1.5004604
-0.0096204933 0.0049654418 1.5005612
0.00072459475 0.0049687517 1.5015916
0.011068694 0.0049654311 1.5005515
0.031755731 0.0049650986 1.5002593
0.042152736 0.0049713622 1.5020064
0.26179057 0.0050123762 1.5001476
0.27283144 0.0050233956 1.5022632
0.2831789 0.0050213048 1.5003664
0.29408443 0.0050289072 1.5013447
0.3056078 0.0050461874 1.5051852
0.31556773 0.0050373618 1.5011066
0.33883727 0.0050714966 1.508373
0.34877956 0.0050624507 1.5040761
-0.10338417 0.015408748 1.5080183
0.031755231 0.015308745 1.50019
0.042263143 0.01536845 1.5059354
0.052781675 0.015407703 1.5096091
0.2301168 0.015431516 1.501163
0.24124154 0.015476299 1.504496
0.25209543 0.015500708 1.5057743
0.28335822 0.015492095 1.5012797
0.29388958 0.015495457 1.5002929
0.30501202 0.015528681 1.5021738
0.316989 0.015601751 1.5078894
0.32737532 0.01559435 1.5056912
0.34966916 0.01564897 1.5079041
0.35959569 0.015620862 1.5035363
0.37019062 0.015622561 1.5020185
-0.12399656 0.025776347 1.5043321
-0.10290695 0.025700858 1.5008947
-0.0096263802 0.02567035 1.5013522
0.011075465 0.02567029 1.5013424
0.021411709 0.025652722 1.5002317
0.21947172 0.025832487 1.5005777
0.24076372 0.025881872 1.5013922
0.30500263 0.026020207 1.5020322
0.33795354 0.026134262 1.5042555
0.34898737 0.026171446 1.5048378
0.35912406 0.026141142 1.501448
-0.09297955 0.036233939 1.5083357
0.094064251 0.036090836 1.5022595
0.28443795 0.036566127 1.5068216
0.30636764 0.036675621 1.5086797
0.31574231 0.036540877 1.50166
0.33750388 0.036623463 1.5020896
0.349195 0.036746286 1.5055974
0.36242813 -0.22668409 1.5138175
0.00072638894 0.046489585 1.5048891
0.011317772 -0.21716836 1.5099078
0.053634025 -0.21727827 1.5094978
0.094120048 0.046489324 1.5029753
0.16696236 0.046545856 1.5007243
0.18788557 0.046581518 1.5002891
0.21973403 0.046720892 1.5020618
0.30536363 0.047059853 1.5034939
0.31744725 -0.22002698 1.511543
0.32648847 0.047076583 1.5011398
0.33829647 -0.21955253 1.5056388
0.34872621 0.047242049 1.5033624
0.3727048 -0.22018518 1.5098546
-0.020038834 0.05689783 1.505404
-0.0096308682 0.056749597 1.5015082
0.00072489789 0.056749996 1.5015386
0.021492306 0.056897566 1.5053842
0.19859821 0.057069685 1.5015913
0.28403094 0.05749872 1.5042149
0.2944541 -0.20834678 1.5076057
0.30573392 0.057634085 1.5050963
0.31610575 0.057607599 1.502975
0.326884 0.0576545 1.5027367
0.33875921 0.057885926 1.5072989
0.34892312 0.057819761 1.5039779
0.3720071 0.05812946 1.5087821
0.38313687 0.058208797 1.5091152
-0.0096426271 0.067187302 1.5030837
0.00072721543 0.067320362 1.5061113
0.031849734 0.067226849 1.5037798
0.073323816 0.067204893 1.5023443
0.083684742 0.067196704 1.5018086
0.094041646 0.067187458 1.5012023
0.10459993 0.067309625 1.5035152
0.19857934 0.067477442 1.5011665
0.28400439 0.067984834 1.5037868
0.29417893 0.06791167 1.500833
0.30590245 0.068188809 1.5056467
0.31689104 0.068289161 1.5064583
0.32727438 0.06825681 1.5042607
0.33829391 0.068355024 1.5049175
0.36017647 0.068504393 1.5050194
0.37220991 0.068774492 1.5093199
-0.0096669141 0.07775104 1.5065845
0.042244818 0.077639177 1.5040312
0.19868705 0.077932864 1.5016608
0.23061897 0.078161784 1.5032012
0.25198892 0.078308173 1.5038542
0.27324301 0.078398861 1.5032233
0.28378987 0.07841704 1.5023055
0.31563494 0.078515142 1.50009
0.34952432 0.079057842 1.505965
0.37122247 0.079177223 1.5049334
0.38233039 0.079285622 1.50527
-0.020058392 0.088132195 1.5059173
-0.009672014 0.088192061 1.5070171
0.00072513055 0.087845683 1.5010575
0.19879159 0.088398196 1.5020835
0.23058997 0.088600069 1.5026324
0.2418924 0.088914111 1.5069398
0.27320886 0.088868894 1.5026526
0.283571 0.088832013 1.5007533
0.29449087 0.08896628 1.5017235
0.31722474 0.089460157 1.5073375
0.32698834 0.089245647 1.5022095
0.33778191 0.08931686 1.5018917
0.35015216 0.089788064 1.5083085
0.36032397 0.089684427 1.5049118
-0.020094972 0.098704815 1.508274
-0.0096642738 0.098513171 1.5053818
0.031837452 0.09831246 1.5020852
0.19863367 0.098743983 1.5004556
0.24107501 0.099063374 1.5013695
0.2731705 0.099334776 1.5020107
0.28408182 0.099486381 1.5030543
0.30559176 0.099656381 1.50295
0.31697699 0.099931605 1.5057141
0.33795202 0.099899791 1.5022205
0.38350117 0.090160556 1.5095336
0.042171028 0.10858786 1.5001296
0.24166371 0.10978051 1.5045985
0.25171903 0.10959768 1.5009465
0.27295119 0.10972495 1.5003157
0.34988019 0.10029833 1.506687
0.35981384 0.10011847 1.5023215
0.37254703 0.10070565 1.5095248
0.21996967 0.11985062 1.5010492
0.26360655 0.11019536 1.5080396
0.28440464 0.1101057 1.504301
0.29592544 0.11048448 1.5082
0.30534756 0.11008061 1.5012562
0.31713158 0.11052677 1.5059727
0.33811697 0.11049163 1.5024767
0.3491559 0.11064878 1.5030502
0.36021912 0.11080416 1.5035434
0.021470582 0.12944593 1.5009332
0.24115227 0.12000126 1.5008602
0.25167572 0.12003482 1.5001633
0.26322123 0.12053373 1.5052874
0.27325788 0.12032994 1.5014938
0.28527328 0.12098036 1.5084137
0.30549243 0.12064169 1.5014467
0.31646717 0.12081955 1.5022547
0.33849347 0.12116951 1.503633
0.3488735 0.12110883 1.5012873
0.36038867 0.1214342 1.5037214
0.37171736 0.12167996 1.5051
0.00072592223 0.1397939 1.5001663
0.20996711 0.13056254 1.504622
0.23103723 0.13064545 1.5035856
0.25195512 0.13063568 1.5012747
0.26249194 0.13067015 1.5005021
0.27338359 0.1308718 1.5016177
0.30622292 0.13146417 1.5044949
0.31681553 0.1314885 1.5033455
0.32824776 0.13184851 1.506018
0.33843109 0.13170007 1.5027702
0.34970313 0.13197146 1.5043092
0.38203925 0.13218327 1.5016608
0.23099017 0.1410851 1.5026588
0.24137102 0.1410352 1.5010475
0.25190395 0.14107463 1.5003479
0.29576039 0.14203244 1.5056155
0.30694848 0.1423346 1.5074668
0.31797263 0.14254312 1.5082612
0.32839218 0.14247596 1.5060557
0.35008034 0.14269984 1.5053134
0.3722856 0.14309698 1.5061963
0.38415328 0.14356495 1.5094136
0.01110838 0.15032665 1.501127
0.084121883 0.15093994 1.5058171
0.1048025 0.15069918 1.5025418
0.12590156 0.15104018 1.5049371
0.14641544 0.15068203 1.5001057
0.21015057 0.15161839 1.5046699
0.23078977 0.15141988 1.5006769
0.24147469 0.15156282 1.5010326
0.29626644 0.15283003 1.5075413
0.30668539 0.15276249 1.5054841
0.31688711 0.15259482 1.5023817
0.32874167 0.15320826 1.5069932
0.33894101 0.15303607 1.5037427
0.35089877 0.15364425 1.5081828
0.37267944 0.15387508 1.5071167
0.38382834 0.15408471 1.5074322
0.39450026 0.15409671 1.5057395
-0.009665343 0.16088104 1.5020651
0.00072653923 0.16067128 1.5001066
0.031882886 0.1607646 1.5007672
0.052681182 0.16084912 1.5011845
0.14647636 0.16115527 1.5000319
0.22064134 0.16210388 1.5031152
0.23088536 0.16194409 1.5005914
0.25211647 0.16214225 1.5002425
0.27479467 0.16316926 1.507426
0.2848511 0.16289237 1.5035608
0.3060244 0.1629604 1.5014812
0.31762734 0.1635142 1.5051985
0.32761586 0.16322803 1.5010512
0.33886307 0.16356725 1.5026622
0.350595 0.16411285 1.5061289
0.36124125 0.16413313 1.5046679
0.37235785 0.16435988 1.5050642
0.38325453 0.16447966 1.5044152
0.39491016 0.1649099 1.5065764
-0.009662875 0.17123017 1.500932
0.03189566 0.17121847 1.5006286
0.052702267 0.17130843 1.5010448
0.18873933 0.17213199 1.5012383
0.21004841 0.17247626 1.5024587
0.23097736 0.17247429 1.5004334
0.24167076 0.17263697 1.5007848
0.26327428 0.17306587 1.5022413
0.27419683 0.17333199 1.5033432
0.2851471 0.17359532 1.504367
0.29536477 0.17340977 1.5014102
0.31775248 0.17414571 1.5050195
0.32900518 0.17450941 1.506701
0.34961632 0.17422673 1.5010992
0.36161292 0.17491582 1.5054449
0.37250376 0.175046 1.5048712
0.38340458 0.17517352 1.5042197
-0.0096792495 0.18192811 1.502707
0.011121728 0.18168974 1.5007114
0.12605201 0.18255092 1.5044951
0.1994613 0.18283087 1.5016593
0.2206704 0.18307166 1.5017438
0.26354447 0.1837558 1.5029813
0.27430117 0.18391967 1.5031019
0.28470576 0.18384402 1.5011947
0.30665523 0.18439403 1.5030075
0.32870957 0.18493223 1.5045034
0.33869201 0.18460673 1.500286
0.35041839 0.18522269 1.5037442
0.36059996 0.18500996 1.5003505
0.37288043 0.18585546 1.505569
0.38427803 0.18622626 1.5068387
0.39546189 0.18647626 1.5070626
-0.0096954657 0.19265811 1.5044067
0.10496671 0.19263013 1.5018227
0.11544637 0.19272353 1.5020604
0.18924893 0.19354294 1.5036705
0.19979328 0.19361199 1.5033273
0.24185179 0.19373308 1.5002463
0.25256887 0.19391249 1.5005181
0.26381049 0.19446428 1.5036471
0.28554246 0.19493261 1.5047803
0.2967242 0.19534965 1.5066913
0.31819135 0.19554964 1.5054123
