ply
format ascii 1.0
comment PCL generated
element vertex 650
property float x
property float y
property float z
element camera 1
property float view_px
property float view_py
property float view_pz
property float x_axisx
property float x_axisy
property float x_axisz
property float y_axisx
property float y_axisy
property float y_axisz
property float z_axisx
property float z_axisy
property float z_axisz
property float focal
property float scalex
property float scaley
property float centerx
property float centery
property int viewportx
property int viewporty
property float k1
property float k2
end_header
-0.47239143 -0.41398293 1.0199672
0.0052792886 -0.11111184 0.7020275
-0.028781483 -0.046205658 0.69451588
-0.03419837 -0.046979554 0.70626432
-0.039182577 -0.047038838 0.70701063
-0.053906813 -0.046952665 0.70506203
-0.028776851 -0.051050987 0.69418418
-0.033909503 -0.051475879 0.69994909
-0.039176282 -0.051971544 0.70667285
-0.049042769 -0.051956668 0.7060709
-0.054493729 -0.052449569 0.71268207
-0.029054632 -0.056443378 0.70079201
-0.034186829 -0.056830034 0.70555604
-0.039277419 -0.057058726 0.70829237
-0.044102799 -0.056894075 0.70601737
-0.049237031 -0.057120886 0.70868355
-0.05433527 -0.057268254 0.71031892
-0.059458107 -0.057414681 0.71191853
-0.028927829 -0.061075255 0.69740361
-0.034227461 -0.0618366 0.70614678
-0.038945768 -0.061488122 0.70191687
-0.02936613 -0.066952772 0.70791459
-0.034267526 -0.066853791 0.70670271
-0.039261691 -0.066937938 0.7074464
-0.044206765 -0.066928923 0.70716161
-0.049555376 -0.067471139 0.71280396
-0.05943438 -0.067355618 0.71106732
-0.028996089 -0.070998833 0.69849247
-0.034448612 -0.072178021 0.71020567
-0.039468877 -0.07226833 0.71094739
-0.049341518 -0.072148904 0.70934814
-0.029627567 -0.082537472 0.71334261
-0.034573067 -0.082416572 0.7121309
-0.039341424 -0.081957139 0.70790929
-0.044406079 -0.08712142 0.70903009
-0.039371379 -0.012511443 0.71142691
-0.029487243 -0.017503371 0.71279305
-0.048810657 -0.017302452 0.70373785
-0.054387655 -0.017515495 0.71236038
-0.03388685 -0.022102227 0.70045769
-0.03931284 -0.022407806 0.71019036
-0.029038075 -0.027030367 0.70150322
-0.034025889 -0.027102852 0.70328474
-0.048871256 -0.027167082 0.70443165
-0.053858306 -0.027200155 0.70507783
-0.058937691 -0.027270393 0.7066856
-0.028913941 -0.031790689 0.69830745
-0.033928081 -0.031920772 0.7010873
-0.064387597 -0.032467663 0.71203464
-0.029031977 -0.036816243 0.70106751
-0.034207735 -0.037120063 0.70683807
-0.039139241 -0.03711563 0.70658791
-0.044068862 -0.037110601 0.70630401
-0.048590325 -0.036797486 0.70000827
-0.029351665 -0.04217134 0.70877951
-0.033636425 -0.041353848 0.69460177
-0.038972039 -0.041871574 0.70332724
-0.044184912 -0.042156249 0.70802701
-0.059324138 -0.042367265 0.71095097
0.030081231 -0.047178458 0.70944375
0.020117575 -0.04705634 0.70779157
0.015091825 -0.04679941 0.70392132
0.010021084 -0.046087306 0.69303173
0.005077967 -0.045179691 0.67911357
0.00033745234 -0.045894161 0.69010872
-0.0043755304 -0.044790313 0.67313087
-0.014323795 -0.046540085 0.69994456
-0.01880949 -0.045563925 0.6848672
-0.02406447 -0.046469301 0.69868511
0.029910905 -0.051838994 0.7051186
0.024881802 -0.051628511 0.70231539
0.020058846 -0.051847432 0.70545948
0.014921965 -0.051133253 0.69560754
0.010005358 -0.050848491 0.6917035
0.005193864 -0.051064938 0.69474751
0.00033739791 -0.050706796 0.68977922
-0.0044826102 -0.050706446 0.68976504
-0.0090787243 -0.049486063 0.67276329
-0.013782185 -0.04948413 0.67268533
-0.018511772 -0.049553111 0.67357224
-0.023623748 -0.050410077 0.68539226
0.0098766014 -0.054965444 0.68236876
0.0052512917 -0.056537308 0.70235753
0.00033686106 -0.055438481 0.68841988
-0.0044944948 -0.05567367 0.69139642
-0.0090376511 -0.053944901 0.66941911
-0.013859629 -0.054492433 0.67631853
-0.018588852 -0.054489434 0.67620784
-0.023585964 -0.055113636 0.68403566
0.025148971 -0.062103577 0.70951015
0.020273302 -0.06236406 0.71265268
0.0152721 -0.062282316 0.71177793
0.010199151 -0.06168763 0.70489144
0.00033679607 -0.060239229 0.6880253
-0.0044112341 -0.059385564 0.67804778
-0.0091148233 -0.05912824 0.67501277
-0.013996724 -0.059808485 0.68290377
-0.019094085 -0.060828973 0.69474387
-0.024152484 -0.061336502 0.70057178
0.020269074 -0.067331173 0.7122103
0.010309854 -0.067337796 0.71241891
0.005322088 -0.067247368 0.71147656
0.00033052539 -0.063839518 0.67465317
-0.0043786303 -0.06365484 0.67264783
-0.0092312712 -0.064666681 0.68355423
-0.014233354 -0.065677419 0.69442594
-0.019170428 -0.06595014 0.69729853
-0.02397952 -0.065761253 0.69516057
0.0051969821 -0.07052359 0.69408464
0.00034094174 -0.070722058 0.69609368
-0.0093343752 -0.070225403 0.69105685
-0.013990663 -0.069332533 0.68202263
-0.019219663 -0.071010023 0.69882137
-0.023974145 -0.070609413 0.69469547
-0.0045729415 -0.076313935 0.70254099
-0.0093058469 -0.074832447 0.68857276
-0.01426665 -0.075569384 0.69545209
-0.024136236 -0.0759826 0.6991663
-0.0046350923 -0.082335077 0.71193999
-0.0095268544 -0.08154586 0.70493639
-0.014223105 -0.080193028 0.69293314
-0.019584708 -0.082325511 0.71169209
-0.0045895218 -0.086460561 0.70441139
-0.024526149 -0.087159827 0.70997071
-0.0046325051 -0.092251495 0.71074885
-0.0096266028 -0.09237542 0.71169221
-0.019648068 -0.097590365 0.71282732
0.010282459 -0.0075503932 0.71248823
0.0052860151 -0.0075090979 0.70854181
-0.019520024 -0.0075497124 0.71229911
0.010253876 -0.01248297 0.71042025
-0.0045876866 -0.017364115 0.70737684
-0.0095994677 -0.017507814 0.71332651
-0.014492749 -0.017411064 0.70924598
0.00034576203 -0.022326652 0.70825559
-0.0045175953 -0.021956446 0.6962471
-0.0094276704 -0.022079287 0.70019734
-0.014491809 -0.022355942 0.70911032
0.0053213108 -0.027452005 0.71306354
0.00033331814 -0.026284879 0.68210483
-0.004485507 -0.02662361 0.69108433
-0.009361078 -0.026773624 0.69503415
-0.014410688 -0.02714912 0.70494461
-0.019140288 -0.026884047 0.69783694
-0.023840746 -0.026693875 0.69269609
-0.0046182913 -0.032377649 0.71186501
-0.0093075084 -0.031442951 0.69083911
-0.01434933 -0.031930909 0.70174605
-0.019299258 -0.032018088 0.70362872
-0.024107415 -0.031882402 0.70048505
0.015075028 -0.036926452 0.70349437
0.010207369 -0.037081849 0.70657629
0.0051377439 -0.036108274 0.68765467
0.00033515779 -0.036006019 0.68567592
-0.0045353086 -0.036672544 0.69864446
-0.0091616595 -0.035697207 0.67962354
-0.014407657 -0.036977988 0.70450705
-0.019189868 -0.036719523 0.69940025
-0.024474496 -0.03733227 0.71123004
0.024854854 -0.04176791 0.70195538
0.020009486 -0.041887175 0.70410407
0.015114952 -0.041947681 0.70522195
0.010191934 -0.041949414 0.70530814
0.0052611288 -0.041892376 0.70436275
0.00033225023 -0.040440168 0.67942405
-0.004363481 -0.039975055 0.67142379
-0.0092526069 -0.040845666 0.68635142
-0.014345856 -0.04171557 0.70124358
-0.019294582 -0.041829452 0.70312482
-0.024135191 -0.041710287 0.70098108
-0.0090143885 -0.044464722 0.66809589
0.075013094 -0.11707418 0.70530987
0.05544816 -0.11780855 0.71102321
0.060595166 -0.13815898 0.71008015
0.034990136 -0.042166322 0.70852935
-0.048753496 -0.19938157 0.76712871
-0.051283691 -0.10597595 0.73542565
-0.061186284 -0.10524243 0.72972089
-0.066302076 -0.10522184 0.72928607
-0.072455242 -0.10673232 0.73965925
-0.08152172 -0.10501101 0.72678787
-0.030026233 -0.10896532 0.72097629
-0.040683184 -0.11040378 0.73037541
-0.045625359 -0.10995046 0.72711819
-0.049850114 -0.10803366 0.71395916
-0.056568701 -0.11137769 0.73629069
-0.060355894 -0.10887331 0.71912622
-0.065929011 -0.10972869 0.72460949
-0.0722422 -0.11160459 0.73694402
-0.077512085 -0.11172538 0.73741758
-0.082899958 -0.11199038 0.73883784
-0.030781299 -0.11689623 0.73897642
-0.041207723 -0.11702366 0.73947239
-0.045973442 -0.11593748 0.73226899
-0.050237432 -0.11393218 0.71912068
-0.055806994 -0.11498383 0.72565895
-0.061711784 -0.11649195 0.73510998
-0.066345014 -0.11555216 0.72876537
-0.072500832 -0.11720879 0.73911625
-0.078093082 -0.11779343 0.74253613
-0.082763359 -0.11700128 0.73707384
-0.0358142 -0.12155119 0.73497564
-0.041192796 -0.12217583 0.73865646
-0.046259947 -0.12184027 0.73638725
-0.051634829 -0.12230121 0.73900855
-0.056973785 -0.12260047 0.74060732
-0.061689503 -0.12162085 0.73429775
-0.06702289 -0.12191633 0.73582584
-0.072285734 -0.12205026 0.73633367
-0.077558719 -0.12218224 0.73680478
-0.082733616 -0.12215281 0.73625809
-0.030355915 -0.12551886 0.72745901
-0.040854294 -0.12632371 0.73189795
-0.046484932 -0.12763834 0.73947525
-0.051278468 -0.12662113 0.7332378
-0.056878183 -0.12759861 0.73877007
-0.061504446 -0.12641147 0.73148501
-0.066997722 -0.12705211 0.73497665
-0.072825342 -0.1281893 0.7413727
-0.07803572 -0.12816045 0.74085814
-0.08313451 -0.12796345 0.73932773
-0.030826928 -0.13266493 0.73839426
-0.035974737 -0.13247839 0.73718238
-0.041268721 -0.13280927 0.73888612
-0.04610322 -0.13175295 0.73268867
-0.051595174 -0.13259906 0.73726952
-0.056559421 -0.1320582 0.73395354
-0.061884888 -0.13238072 0.73551315
-0.067059219 -0.13235506 0.73507339
-0.072419256 -0.13267331 0.73655897
-0.077499449 -0.13247056 0.73506749
-0.083425932 -0.13364905 0.74137414
-0.030814368 -0.13780722 0.73747158
-0.046447821 -0.13793907 0.73766339
-0.051372219 -0.13719948 0.73340315
-0.056462355 -0.13699737 0.73205417
-0.062506676 -0.13895029 0.74243551
-0.067382529 -0.13820451 0.73807204
-0.072673075 -0.13835531 0.73857373
-0.077973768 -0.13850394 0.73903877
-0.083176471 -0.1384708 0.73848891
-0.030881777 -0.1433164 0.73847705
-0.036085878 -0.14330205 0.73824871
-0.041288286 -0.14328542 0.73798472
-0.04667037 -0.14382625 0.74062699
-0.051485181 -0.14268601 0.73440993
-0.057179265 -0.14396824 0.74089867
-0.061914608 -0.14282393 0.73461592
-0.067354232 -0.14335562 0.73711151
-0.072453901 -0.14313935 0.73565626
-0.080063999 -0.14757942 0.75859874
-0.036117088 -0.1486377 0.73823351
-0.041324012 -0.14862049 0.73796928
-0.046589512 -0.14879423 0.73864883
-0.051799107 -0.14877243 0.7383132
-0.05730243 -0.14952105 0.7418555
-0.062614813 -0.14968769 0.74242449
-0.067675143 -0.14927261 0.74002481
-0.073082544 -0.1496277 0.74149853
-0.026622111 -0.15940863 0.76504171
-0.031858727 -0.15859519 0.76092571
-0.037227478 -0.15857933 0.76068997
-0.042325929 -0.1575613 0.75552607
-0.047657132 -0.15754068 0.75521904
-0.052918881 -0.15731773 0.7538982
-0.058312662 -0.15749218 0.75449598
-0.063555747 -0.15726449 0.75310349
-0.069044895 -0.1576338 0.75460345
-0.075311944 -0.15959859 0.76386732
-0.08741881 -0.049156923 0.73694474
-0.087850176 -0.059777543 0.7401647
-0.094110653 -0.060465947 0.74845272
-0.088063672 -0.065124445 0.74171859
-0.087815337 -0.07012777 0.7392785
-0.08837121 -0.075791471 0.74372464
-0.088235214 -0.080886602 0.7422021
-0.088557951 -0.086413294 0.74459356
-0.089109115 -0.092214495 0.7489174
-0.09446837 -0.092308171 0.74927706
-0.088394187 -0.096695803 0.74235815
-0.089861654 -0.10360893 0.75447923
-0.096640989 -0.018972447 0.77045274
-0.087813355 -0.023444541 0.74116009
-0.086654022 -0.02825339 0.73105615
-0.087682694 -0.03376792 0.73977709
-0.08709687 -0.038686834 0.73456901
-0.086970568 -0.043767806 0.73329586
-0.045091297 -0.048070438 0.72266304
-0.050065484 -0.047998302 0.72134256
-0.059721854 -0.047657322 0.71561784
-0.065067209 -0.047907162 0.71916938
-0.070084453 -0.047896892 0.71870834
-0.075708099 -0.048274666 0.72416937
-0.080975935 -0.048392374 0.72561967
-0.044719007 -0.052681275 0.71634448
-0.059793532 -0.052726556 0.71626979
-0.064880736 -0.05278771 0.71683824
-0.069978446 -0.052848022 0.71737152
-0.075492814 -0.053193849 0.72183836
-0.080312721 -0.05303764 0.71932298
-0.085447222 -0.053095363 0.7197488
-0.065309435 -0.0581875 0.72142619
-0.071957059 -0.059507903 0.73783433
-0.077308148 -0.05965101 0.73930937
-0.083874732 -0.060655147 0.75164759
-0.044580881 -0.06250307 0.71356845
-0.05125618 -0.064625084 0.7380988
-0.056259699 -0.064443849 0.73574436
-0.060664877 -0.063665047 0.72640562
-0.066000931 -0.063908085 0.72895187
-0.070237137 -0.063127689 0.71955758
-0.076480836 -0.064135283 0.73095536
-0.082991973 -0.065226562 0.74329221
-0.056620032 -0.070036836 0.74025208
-0.064931467 -0.067894287 0.71659607
-0.071359813 -0.069259465 0.73100471
-0.075652659 -0.068507947 0.72257584
-0.080700077 -0.068491198 0.7220425
-0.045230374 -0.073543653 0.72357339
-0.055565994 -0.073816828 0.72586411
-0.061044652 -0.074297406 0.73042667
-0.065972552 -0.074085169 0.72801036
-0.070775449 -0.073773094 0.72457117
-0.075940415 -0.073854953 0.72506094
-0.081223652 -0.074034341 0.72650409
-0.029635131 -0.077561066 0.71388876
-0.034770608 -0.077870078 0.71664929
-0.03972932 -0.077755213 0.71540207
-0.044854868 -0.077956028 0.71709913
-0.049937896 -0.078049943 0.71776801
-0.054883406 -0.077931404 0.71641868
-0.060461991 -0.078656308 0.72296482
-0.06551712 -0.078640789 0.72253507
-0.070000812 -0.07799083 0.71613151
-0.075820856 -0.078817099 0.72355062
-0.081312634 -0.079219818 0.7269702
-0.045025725 -0.083295055 0.71952564
-0.050533205 -0.084069312 0.7261408
-0.05553858 -0.083943009 0.72478783
-0.059878659 -0.08291661 0.71547842
-0.065676332 -0.083911262 0.72396094
-0.07111945 -0.084342644 0.72745222
-0.075903125 -0.083986558 0.72398424
-0.081400305 -0.084415108 0.72740018
-0.029821303 -0.088106081 0.71772277
-0.034940936 -0.088335499 0.71948564
-0.040032148 -0.08844427 0.72022158
-0.050519552 -0.089134164 0.72555
-0.055449262 -0.088881135 0.72320783
-0.060835887 -0.089341529 0.72677058
-0.065658629 -0.088966653 0.72337115
-0.070910968 -0.089185916 0.72488272
-0.07608562 -0.089284644 0.72536927
-0.082027748 -0.090215057 0.73272878
-0.02993379 -0.093486264 0.72007823
-0.034836654 -0.093098782 0.71688414
-0.040074628 -0.093591675 0.72059155
-0.045790166 -0.094964579 0.73119289
-0.050842725 -0.094824471 0.72987336
-0.055656362 -0.094305173 0.72555202
-0.061223995 -0.095043436 0.73108727
-0.0657278 -0.094143741 0.72373515
-0.071174741 -0.094627127 0.72721958
-0.076368257 -0.094731398 0.72770351
-0.08200448 -0.095337272 0.7320959
-0.030045744 -0.09890265 0.72239441
-0.035108898 -0.098892562 0.72217208
-0.040655669 -0.10007547 0.73082256
-0.045776378 -0.1000621 0.7305277
-0.050759923 -0.099781804 0.72822022
-0.055862479 -0.099765345 0.72785646
-0.060881339 -0.09961471 0.72647023
-0.065971613 -0.099595182 0.72603744
-0.071058787 -0.099574104 0.72557002
-0.076345399 -0.099816605 0.72703999
-0.083169647 -0.10191281 0.74226594
-0.030197483 -0.10449446 0.72566009
-0.035050664 -0.10378634 0.72049123
-0.040427178 -0.10461103 0.72616732
-0.045094274 -0.10362086 0.71895564
-0.055696305 -0.10456432 0.72518378
-0.076017305 -0.10447921 0.72338647
-0.029691901 -0.0076107238 0.7179597
-0.034648098 -0.0075995671 0.71674114
-0.039967578 -0.0076608569 0.72247869
-0.044879723 -0.0076390859 0.72019261
-0.050439507 -0.0077208355 0.72785044
-0.055360686 -0.0076988162 0.72549462
-0.059682805 -0.0076041641 0.71613008
-0.066963516 -0.0078719519 0.74160331
-0.071272783 -0.0077770581 0.73216993
-0.077286877 -0.0078684399 0.74061906
-0.029771835 -0.012651757 0.71988881
-0.034646973 -0.012598881 0.7166723
-0.04506094 -0.012715948 0.72311729
-0.049625449 -0.012593754 0.71580976
-0.05602945 -0.012918028 0.73439854
-0.060331348 -0.012743906 0.72403342
-0.065815955 -0.012827223 0.72858435
-0.071365379 -0.012910304 0.73309469
-0.077589452 -0.013096127 0.74353176
-0.034550756 -0.017549573 0.71457213
-0.039693937 -0.017619485 0.71731412
-0.045363206 -0.017881112 0.72800267
-0.061629299 -0.018183984 0.73987156
-0.065372258 -0.017796606 0.72350037
-0.06984359 -0.0176489 0.71706593
-0.08002615 -0.0188675 0.76729333
-0.029566223 -0.022536127 0.71465409
-0.045299385 -0.022928676 0.72686559
-0.0499583 -0.022740314 0.72055578
-0.055501632 -0.022952164 0.72717512
-0.062031835 -0.023502406 0.74471104
-0.066777594 -0.023343738 0.73929191
-0.070693098 -0.022938447 0.72588354
-0.075953864 -0.022994723 0.72737265
-0.082756624 -0.02348146 0.74273521
-0.040066659 -0.027890012 0.7239902
-0.044808675 -0.02769807 0.71871245
-0.065274693 -0.027866673 0.72219312
-0.071256727 -0.028236676 0.73167849
-0.075032741 -0.027741494 0.71825147
-0.081882365 -0.028373532 0.73461014
-0.039684318 -0.032628197 0.71679991
-0.044682588 -0.032623775 0.71651202
-0.049881756 -0.032752153 0.71918017
-0.055566281 -0.03314656 0.72778887
-0.061451849 -0.033584733 0.73734951
-0.071249858 -0.033348802 0.73146826
-0.075737149 -0.033074744 0.72500193
-0.081982955 -0.033554841 0.73539221
-0.054591823 -0.037559953 0.71459866
-0.059819411 -0.03770677 0.71719521
-0.064644575 -0.037596829 0.71478045
-0.070008658 -0.037793603 0.71829915
-0.076541863 -0.038552884 0.73270702
-0.080997899 -0.038236283 0.72621065
-0.050005056 -0.042904623 0.72065681
-0.054957144 -0.042839404 0.71930307
-0.064900465 -0.042765025 0.71749026
-0.070284247 -0.042987905 0.72100562
-0.075718977 -0.043210011 0.72448146
-0.081312805 -0.043489315 0.72890967
0.025577083 -0.048026387 0.72259676
0.030360617 -0.057620138 0.71570468
0.025637548 -0.058253355 0.72386533
0.020360429 -0.057629511 0.71605086
0.015316896 -0.057475779 0.71417934
0.030892387 -0.063718721 0.72823608
0.0053596604 -0.062713072 0.71690011
0.030844605 -0.068701655 0.72678918
0.025350958 -0.067602552 0.71504039
0.015457161 -0.068071939 0.72029585
0.030920364 -0.073964357 0.72829163
0.025863227 -0.074069828 0.72947961
0.020652629 -0.073679648 0.72565991
0.015976483 -0.075563043 0.74468619
0.010519047 -0.073785804 0.7268675
-0.0046437276 -0.072501972 0.71399081
0.030912949 -0.079039365 0.72776967
0.025891544 -0.079257749 0.72995079
0.020647671 -0.078735106 0.72513998
0.0158263 -0.080007881 0.73719364
0.010558812 -0.079165608 0.72932965
0.0054653585 -0.079273298 0.73037869
0.00037566095 -0.083290569 0.76818568
-0.019723525 -0.077890329 0.71720701
0.031194273 -0.084897757 0.73416275
0.026022982 -0.084792838 0.733365
0.020864058 -0.084686548 0.73253179
0.015738649 -0.084691375 0.7326566
0.010556112 -0.084244937 0.72877234
0.0055003869 -0.084921934 0.73478878
0.0003507814 -0.082785569 0.71592927
-0.024734162 -0.082881987 0.71650696
0.030979296 -0.089416347 0.7286061
0.026291959 -0.090855055 0.74070716
0.021190805 -0.091219388 0.74384636
0.015755273 -0.089912847 0.73305404
0.010863222 -0.091943823 0.75002098
0.0055935774 -0.091588363 0.74709874
0.00035735682 -0.089442566 0.72924751
-0.0096556386 -0.087651126 0.71429104
-0.014917248 -0.089197963 0.72711289
-0.019820128 -0.088358387 0.72004604
0.031424653 -0.095878847 0.73888165
0.026180945 -0.095635325 0.73709548
0.021184729 -0.096398339 0.74320632
0.015980542 -0.096403815 0.74333316
0.010606565 -0.094895475 0.73152119
0.0054973168 -0.095149882 0.73356009
0.00035058559 -0.092756234 0.71473163
-0.01483322 -0.093758054 0.72251964
-0.019841187 -0.09350092 0.72041792
-0.024720369 -0.092864312 0.71530789
0.031415172 -0.10102539 0.73820996
0.026379941 -0.10156538 0.74236882
0.021150645 -0.10143996 0.74154025
0.015829531 -0.10064903 0.73572135
0.010561112 -0.099590816 0.72788328
0.005422865 -0.098929361 0.72298241
0.00036571786 -0.10198449 0.74579853
-0.0046943715 -0.098531201 0.72001392
-0.0097681135 -0.09879452 0.72194672
-0.014788874 -0.098525159 0.71988094
-0.024981158 -0.098911166 0.72258198
0.020673454 -0.10423078 0.72400355
0.010487375 -0.10396185 0.7222361
0.0053629288 -0.10284803 0.71436882
0.0003503683 -0.10270941 0.71339816
-0.0047434773 -0.1046624 0.72724617
-0.0097518861 -0.1036832 0.72026551
-0.019909065 -0.10395264 0.72204316
-0.024939712 -0.10380583 0.72090048
0.031262007 -0.0078283632 0.73891181
0.026079519 -0.0078186989 0.73810834
0.020631723 -0.0077052 0.72727352
0.015793813 -0.0078197252 0.73839402
0.00034915615 -0.0075817695 0.71556062
-0.0046324818 -0.0075713457 0.71454608
-0.0097582769 -0.0076852562 0.72549582
-0.014753822 -0.0076538417 0.72241282
-0.024653368 -0.0076010218 0.71714592
0.031136774 -0.01292662 0.7358439
0.026493713 -0.013168459 0.75002843
0.020992024 -0.012997507 0.74019676
0.015751405 -0.012929481 0.73632383
0.0054829665 -0.012913153 0.73546898
0.00036681694 -0.013205582 0.75248641
-0.0048861573 -0.013239881 0.75447071
-0.010060837 -0.013136407 0.74842083
-0.015053206 -0.012946765 0.7373383
-0.019733887 -0.012653771 0.72022665
-0.024686199 -0.012618485 0.71807623
0.031383682 -0.018199418 0.74173141
0.026181152 -0.018177042 0.74092877
0.020657809 -0.017866204 0.72809857
0.015750637 -0.018059356 0.73621815
0.010521714 -0.017891992 0.72931081
0.0054388959 -0.017892445 0.72936529
0.00034960531 -0.017580388 0.71638876
-0.019759735 -0.017698267 0.7211225
-0.02461773 -0.017576942 0.71597481
0.031671446 -0.023583999 0.74858016
0.026214039 -0.023370296 0.741786
0.020850819 -0.023156183 0.73495322
0.015498293 -0.022818325 0.72408563
0.01057752 -0.023096804 0.73316902
0.0053363424 -0.022542313 0.71523291
-0.019597597 -0.022539711 0.7149896
-0.02475065 -0.022692259 0.71983361
0.031420499 -0.028573494 0.7424109
0.025831534 -0.028124264 0.73062336
0.020654798 -0.028013378 0.72778547
0.015622688 -0.0280903 0.72990727
0.010364847 -0.02763959 0.71800619
0.030837949 -0.033124115 0.72822416
0.025656141 -0.032993689 0.72542197
0.020958142 -0.033574216 0.73856187
0.015809631 -0.033576149 0.73868734
0.010321482 -0.032510176 0.71480376
0.0053280923 -0.032466523 0.71385825
0.00036241251 -0.033756599 0.74284887
0.030793076 -0.03814891 0.72698289
0.025687816 -0.038101051 0.72617769
0.020622699 -0.038103852 0.72633564
0.030706339 -0.043100156 0.7247104
0.067775644 -0.007882081 0.74253494
0.061039668 -0.0076868362 0.7240451
0.056898478 -0.0078126043 0.73640954
0.052316643 -0.0078968378 0.74476087
0.047128599 -0.0078980541 0.74510014
0.04193829 -0.0078991428 0.74540401
0.036697738 -0.0078897392 0.74467373
0.079956613 -0.013370302 0.75937039
0.068129674 -0.013135929 0.74644697
0.062929697 -0.013138578 0.74689412
0.055991106 -0.012745931 0.72437471
0.052658223 -0.013177613 0.7496767
0.047374461 -0.013162459 0.74902034
0.042212103 -0.01318146 0.75032407
0.036696542 -0.013079942 0.74460214
0.085455813 -0.018718373 0.76068497
0.079952754 -0.018675081 0.75926107
0.072843626 -0.018223837 0.74088138
0.068393551 -0.018419672 0.74932688
0.062844381 -0.018327426 0.7457903
0.05749752 -0.018282846 0.74420768
0.052243758 -0.018261956 0.74358493
0.047124781 -0.018288765 0.74492151
0.041879851 -0.018267283 0.74422711
0.036501881 -0.018173484 0.74050105
0.084137402 -0.023665266 0.74861699
0.078408189 -0.02351724 0.7442019
0.073605686 -0.023645878 0.74869895
0.068300091 -0.023620216 0.74818772
0.062758081 -0.023501771 0.74465144
0.057569254 -0.023506133 0.74506187
0.052583613 -0.02360256 0.7484284
0.047369089 -0.023606194 0.74876946
0.042152289 -0.023609448 0.74907482
0.036885247 -0.023581503 0.74834627
0.083802462 -0.028785896 0.74545783
0.078607149 -0.028793046 0.74601179
0.073791429 -0.028950142 0.75050908
0.068116523 -0.028768402 0.74601817
0.062588535 -0.028623741 0.74248153
0.057413723 -0.028629055 0.74289089
0.05216752 -0.028596286 0.74226803
0.046685092 -0.028412525 0.73761946
0.041708693 -0.028529352 0.74091375
0.036641203 -0.028608114 0.74317694
0.083794415 -0.033997469 0.74524361
0.078291759 -0.033872731 0.74281627
0.073401034 -0.034013826 0.74631602
0.06846609 -0.034154456 0.74978417
0.062993683 -0.034028061 0.74724662
0.057559062 -0.03390108 0.74467027
0.052711561 -0.034129016 0.75002843
0.04698972 -0.033778705 0.74239355
0.041869704 -0.033827808 0.74369389
0.036975104 -0.034098674 0.74994904
0.08433193 -0.039463345 0.74995726
0.07910379 -0.039473146 0.75051481
0.073776059 -0.039431114 0.7500425
0.06854742 -0.039439663 0.75052804
0.063397743 -0.039498828 0.75197315
0.057854302 -0.039301191 0.7484045
0.05201935 -0.038846612 0.73981446
0.046798952 -0.038801324 0.73915505
0.041754957 -0.038909197 0.74145114
0.036247898 -0.038555037 0.73473573
0.083555609 -0.044299539 0.74272394
0.078888491 -0.044600513 0.74824154
0.063307382 -0.044687554 0.75069088
0.058073126 -0.044695836 0.75110489
0.052355744 -0.044297006 0.7445116
0.046978366 -0.044129614 0.741862
0.041089505 -0.043380734 0.7292065
0.099469088 -0.014684348 0.8346743
0.099429339 -0.043802481 0.83367658
-0.16367717 -0.62636614 3.4058862
-0.18727405 -0.62629342 3.4046891
-0.11601114 -0.64759129 3.3916614
-0.13967098 -0.67173952 3.3911941
-0.11632773 -0.6257627 3.4038649
-0.16228163 -0.52735662 3.3871531
-0.16409039 -0.58059096 3.4200232
-0.16233802 -0.50411451 3.3906717
-0.1389892 -0.55126894 3.388449
0 0 0 1 0 0 0 1 0 0 0 1 0 0 0 0 0 650 1 0 0
